# .PCD v0.7 - Point Cloud Data file format
VERSION 0.7
FIELDS x y z rgb normal_x normal_y normal_z curvature
SIZE 4 4 4 4 4 4 4 4
TYPE F F F U F F F F
COUNT 1 1 1 1 1 1 1 1
WIDTH 931
HEIGHT 1
VIEWPOINT 0 0 0 1 0 0 0
POINTS 931
DATA ascii
1.1126447 0.38248831 0.26614025 4290625492 0 0 0 0
1.1126143 0.38020271 0.26636568 4290690772 0 0 0 0
1.1115787 0.3786329 0.26257047 4290756309 0 0 0 0
1.1115482 0.37633964 0.26279664 4290887126 0 0 0 0
1.112523 0.37334579 0.26704192 4290756566 0 0 0 0
1.111487 0.37175322 0.26324898 4290690774 0 0 0 0
1.1114565 0.36946002 0.26347515 4290624727 0 0 0 0
1.1104203 0.36784476 0.25968429 4290624728 0 0 0 0
1.1113955 0.36487359 0.26392749 4290559450 0 0 0 0
1.1103591 0.36324316 0.26013812 4290559190 0 0 0 0
1.1103284 0.36094236 0.26036507 4290559185 0 0 0 0
1.1102978 0.35864156 0.26059198 4290624981 0 0 0 0
1.1102672 0.35634077 0.2608189 4290625498 0 0 0 0
1.1102365 0.35403997 0.26104581 4290691032 0 0 0 0
1.1112123 0.3511143 0.26528448 4290691287 0 0 0 0
1.1111817 0.34882107 0.26551065 4290756564 0 0 0 0
1.1111512 0.34652787 0.26573682 4290756305 0 0 0 0
1.1121273 0.34363255 0.26997241 4290756821 0 0 0 0
1.1120969 0.34134692 0.27019784 4290757081 0 0 0 0
1.1120665 0.33906129 0.27042326 4290756827 0 0 0 0
1.112036 0.33677566 0.27064866 4290757853 0 0 0 0
1.1120056 0.33449003 0.27087408 4290757338 0 0 0 0
1.1119752 0.33220437 0.27109951 4290757080 0 0 0 0
1.1119447 0.32991874 0.27132493 4290822360 0 0 0 0
1.1119143 0.32763308 0.27155036 4290822361 0 0 0 0
1.1118839 0.32534748 0.27177578 4290822359 0 0 0 0
1.1118535 0.32306182 0.27200121 4290822613 0 0 0 0
1.111823 0.32077619 0.27222663 4290822613 0 0 0 0
1.1117926 0.31849059 0.27245203 4290757078 0 0 0 0
1.1117622 0.31620494 0.27267745 4290691032 0 0 0 0
1.1117316 0.31391931 0.27290288 4290756570 0 0 0 0
1.1117013 0.31163368 0.2731283 4290822107 0 0 0 0
1.1106627 0.30983642 0.26935554 4290953181 0 0 0 0
1.1106322 0.30754322 0.26958171 4291150044 0 0 0 0
1.1106017 0.30524999 0.26980788 4290953947 0 0 0 0
1.110571 0.30295679 0.27003404 4290822875 0 0 0 0
1.1105405 0.30066359 0.27026019 4290822619 0 0 0 0
1.1115186 0.29791987 0.27448082 4290822620 0 0 0 0
1.1114882 0.29563421 0.27470624 4290757341 0 0 0 0
1.110449 0.29378393 0.27093869 4290757338 0 0 0 0
1.1114274 0.29106295 0.27515709 4290823128 0 0 0 0
1.1113969 0.28877732 0.27538252 4290888667 0 0 0 0
1.1103574 0.28690428 0.2716172 4290888671 0 0 0 0
1.1103268 0.28461105 0.27184337 4290954205 0 0 0 0
1.1102962 0.28231785 0.27206954 4290954715 0 0 0 0
1.1102657 0.28002465 0.27229571 4291019999 0 0 0 0
1.1102352 0.27773142 0.27252188 4290954467 0 0 0 0
1.109195 0.27581289 0.26876095 4290954463 0 0 0 0
1.1091644 0.2735121 0.26898786 4290954459 0 0 0 0
1.1091337 0.2712113 0.26921478 4290954458 0 0 0 0
1.110113 0.26855853 0.27342656 4290888921 0 0 0 0
1.1100825 0.26626533 0.27365273 4290888920 0 0 0 0
1.110052 0.26397213 0.2738789 4290888920 0 0 0 0
1.1090112 0.26200813 0.27012247 4290954203 0 0 0 0
1.1089805 0.25970733 0.27034938 4290954207 0 0 0 0
1.1089499 0.25740653 0.2705763 4290954206 0 0 0 0
1.1089193 0.25510573 0.27080321 4291085789 0 0 0 0
1.1088886 0.25280493 0.27103013 4291216858 0 0 0 0
1.108858 0.25050414 0.27125704 4291151320 0 0 0 0
1.1088274 0.24820335 0.27148396 4291150811 0 0 0 0
1.1098077 0.2456264 0.27568826 4291151070 0 0 0 0
1.1087661 0.24360175 0.27193779 4291216350 0 0 0 0
1.1097467 0.24103998 0.2761406 4291085279 0 0 0 0
1.1097162 0.23874678 0.27636674 4290954207 0 0 0 0
1.1096857 0.23645356 0.27659291 4290954463 0 0 0 0
1.109655 0.23416033 0.27681908 4291019489 0 0 0 0
1.1086129 0.23209777 0.27307236 4290953956 0 0 0 0
1.109594 0.22957389 0.27727142 4290954465 0 0 0 0
1.1105753 0.22706519 0.28146887 4290954206 0 0 0 0
1.1105448 0.22477958 0.28169429 4290954205 0 0 0 0
1.1105144 0.22249393 0.28191972 4290954461 0 0 0 0
1.110484 0.22020829 0.28214514 4291019998 0 0 0 0
1.1104535 0.21792266 0.28237057 4291019999 0 0 0 0
1.1094108 0.21581462 0.27862844 4291019235 0 0 0 0
1.1093802 0.21352138 0.27885461 4291149031 0 0 0 0
1.1093497 0.21122818 0.27908078 4291348706 0 0 0 0
1.1093192 0.20893496 0.27930695 4291217374 0 0 0 0
1.1092887 0.20664175 0.27953312 4291151839 0 0 0 0
1.1092582 0.20434853 0.27975929 4291151840 0 0 0 0
1.1092277 0.20205532 0.27998546 4291151585 0 0 0 0
1.109197 0.19976211 0.28021163 4291151587 0 0 0 0
1.1091665 0.19746891 0.2804378 4291151843 0 0 0 0
1.109136 0.19517568 0.28066397 4291152355 0 0 0 0
1.1091055 0.19288246 0.28089014 4291217121 0 0 0 0
1.109075 0.19058923 0.28111631 4291217632 0 0 0 0
1.1090444 0.18829602 0.28134248 4291217116 0 0 0 0
1.1090139 0.18600281 0.28156865 4291217112 0 0 0 0
1.1089834 0.18370961 0.28179479 4291282907 0 0 0 0
1.1089528 0.18141639 0.28202096 4291217631 0 0 0 0
1.1089222 0.17912318 0.28224713 4291217376 0 0 0 0
1.1088917 0.17682995 0.2824733 4291282914 0 0 0 0
1.1088612 0.17453673 0.28269947 4291348449 0 0 0 0
1.1088307 0.17224352 0.28292564 4291283424 0 0 0 0
1.1088002 0.16995031 0.28315181 4291282912 0 0 0 0
1.1087697 0.16765709 0.28337798 4291217377 0 0 0 0
1.1077245 0.1653747 0.27965295 4291152099 0 0 0 0
1.1076939 0.1630739 0.27987987 4291021285 0 0 0 0
1.1076633 0.1607731 0.28010678 4290955491 0 0 0 0
1.1076326 0.1584723 0.2803337 4291021026 0 0 0 0
1.107602 0.1561715 0.28056061 4291151583 0 0 0 0
1.1075714 0.1538707 0.28078753 4291217117 0 0 0 0
1.1075407 0.15156992 0.28101444 4291282655 0 0 0 0
1.1075101 0.14926912 0.28124136 4291282913 0 0 0 0
1.1074795 0.14696832 0.28146827 4291282914 0 0 0 0
1.1074488 0.14466752 0.28169519 4291282915 0 0 0 0
1.1074182 0.14236672 0.2819221 4291282660 0 0 0 0
1.1073875 0.14006592 0.28214902 4291348454 0 0 0 0
1.1073569 0.13776512 0.28237593 4291413988 0 0 0 0
1.1073263 0.13546434 0.28260285 4291414242 0 0 0 0
1.1072956 0.13316354 0.28282976 4291479523 0 0 0 0
1.108281 0.13096565 0.28699669 4291348452 0 0 0 0
1.1082505 0.12867244 0.28722283 4291283174 0 0 0 0
1.10822 0.12637922 0.287449 4291283176 0 0 0 0
1.1071731 0.12396035 0.28373742 4291348707 0 0 0 0
1.1071424 0.12165956 0.28396434 4291348446 0 0 0 0
1.1071118 0.11935877 0.28419125 4291348705 0 0 0 0
1.1070812 0.11705797 0.2844182 4291348708 0 0 0 0
1.1070505 0.11475717 0.28464511 4291348451 0 0 0 0
1.1070199 0.11245638 0.28487203 4291282403 0 0 0 0
1.1069893 0.11015558 0.28509894 4291218406 0 0 0 0
1.1069586 0.10785479 0.28532586 4291283945 0 0 0 0
1.106928 0.10555399 0.28555277 4291349479 0 0 0 0
1.1068974 0.1032532 0.28577968 4291480549 0 0 0 0
1.1068667 0.10095239 0.2860066 4291676900 0 0 0 0
1.1068361 0.098651603 0.28623351 4291545828 0 0 0 0
1.1068054 0.096350811 0.28646043 4291414499 0 0 0 0
1.1067748 0.094050013 0.28668734 4291414755 0 0 0 0
1.1067442 0.091749214 0.28691426 4291415011 0 0 0 0
1.1067135 0.089448422 0.28714117 4291415523 0 0 0 0
1.1066829 0.087147623 0.28736809 4291480802 0 0 0 0
1.1066523 0.084846824 0.287595 4291546082 0 0 0 0
1.1066216 0.082546026 0.28782192 4291611366 0 0 0 0
1.106591 0.080245234 0.28804883 4291545835 0 0 0 0
1.1065603 0.077944435 0.28827575 4291545576 0 0 0 0
1.1052567 0.075287588 0.28360021 4291546085 0 0 0 0
1.1064992 0.073342845 0.28872958 4291546084 0 0 0 0
1.1064686 0.071042053 0.28895649 4291546339 0 0 0 0
1.1064379 0.068741255 0.28918341 4291546340 0 0 0 0
1.1064073 0.066440456 0.28941035 4291546597 0 0 0 0
1.1063766 0.064139664 0.28963727 4291612130 0 0 0 0
1.106346 0.061838865 0.28986418 4291612384 0 0 0 0
1.1063154 0.05953807 0.2900911 4291611875 0 0 0 0
1.1062847 0.057237275 0.29031801 4291612135 0 0 0 0
1.1062541 0.054936476 0.29054493 4291611878 0 0 0 0
1.1062235 0.052635681 0.29077184 4291611621 0 0 0 0
1.1061928 0.050334886 0.29099876 4291677158 0 0 0 0
1.1061622 0.048034087 0.29122567 4291611878 0 0 0 0
1.1061316 0.045733292 0.29145259 4291611878 0 0 0 0
1.1061009 0.043432496 0.2916795 4291611877 0 0 0 0
1.1060703 0.041131698 0.29190642 4291612134 0 0 0 0
1.1060396 0.038830906 0.29213333 4291612390 0 0 0 0
1.106009 0.036530107 0.29236025 4291612390 0 0 0 0
1.1059784 0.034229312 0.29258716 4291612391 0 0 0 0
1.1059477 0.031928517 0.29281408 4291677927 0 0 0 0
1.1059171 0.029627718 0.29304099 4291612391 0 0 0 0
1.1058865 0.027326923 0.29326791 4291612137 0 0 0 0
1.1045799 0.024461597 0.2886129 4291677675 0 0 0 0
1.1045492 0.022151325 0.28884077 4291743209 0 0 0 0
1.1045184 0.019841054 0.28906861 4291743463 0 0 0 0
1.1044877 0.01753078 0.28929648 4291809001 0 0 0 0
1.1044569 0.015220511 0.28952432 4291809515 0 0 0 0
1.1044261 0.012910237 0.28975219 4291809256 0 0 0 0
1.1033741 0.010102863 0.28607902 4291743462 0 0 0 0
1.1033432 0.0077850092 0.28630763 4291743462 0 0 0 0
1.1033124 0.0054671555 0.28653622 4291808999 0 0 0 0
1.1032815 0.003149302 0.28676483 4291874534 0 0 0 0
1.1032506 0.00083145197 0.28699341 4291809254 0 0 0 0
1.1032199 -0.0014864017 0.28722203 4291743974 0 0 0 0
1.103189 -0.0038042553 0.28745061 4291744230 0 0 0 0
1.1031581 -0.006122109 0.28767923 4291809510 0 0 0 0
1.1031272 -0.0084399628 0.28790781 4291612902 0 0 0 0
1.1030964 -0.010757812 0.28813642 4291481829 0 0 0 0
1.1030655 -0.013075667 0.28836501 4291678435 0 0 0 0
1.1040571 -0.014813028 0.29248637 4291875300 0 0 0 0
1.1030037 -0.017711373 0.2888222 4291810021 0 0 0 0
1.1029729 -0.020029232 0.28905082 4291744228 0 0 0 0
1.1029421 -0.022347081 0.2892794 4291809763 0 0 0 0
1.1029112 -0.024664931 0.28950799 4291875299 0 0 0 0
1.1028804 -0.026982788 0.2897366 4291940836 0 0 0 0
1.1028495 -0.029300639 0.28996518 4292071911 0 0 0 0
1.1017954 -0.032252066 0.28630614 4291941098 0 0 0 0
1.1017646 -0.034577508 0.28653547 4291875304 0 0 0 0
1.1027569 -0.036254205 0.29065099 4291875558 0 0 0 0
1.102726 -0.038572054 0.29087958 4291941096 0 0 0 0
1.1026952 -0.040889904 0.29110819 4291941611 0 0 0 0
1.1026644 -0.043207753 0.29133677 4292006632 0 0 0 0
1.1016097 -0.046204668 0.28768221 4292006118 0 0 0 0
1.1015787 -0.048530102 0.28791156 4292071654 0 0 0 0
1.1015478 -0.050855543 0.28814092 4292071655 0 0 0 0
1.1015168 -0.05318097 0.28837025 4292071909 0 0 0 0
1.1014858 -0.055506404 0.28859961 4292007139 0 0 0 0
1.1014549 -0.057831846 0.28882894 4292007143 0 0 0 0
1.101424 -0.060157273 0.2890583 4292007146 0 0 0 0
1.101393 -0.062482703 0.28928763 4292006634 0 0 0 0
1.101362 -0.064808145 0.28951699 4292006377 0 0 0 0
1.101331 -0.067133583 0.28974634 4292006375 0 0 0 0
1.1013001 -0.069459006 0.28997567 4291940837 0 0 0 0
1.1012691 -0.071784444 0.29020503 4291940842 0 0 0 0
1.1012381 -0.074109875 0.29043436 4291941103 0 0 0 0
1.1012071 -0.07643532 0.29066372 4291941101 0 0 0 0
1.1011763 -0.078760743 0.29089305 4292006892 0 0 0 0
1.1011453 -0.081086174 0.29112241 4292072427 0 0 0 0
1.1011143 -0.083411627 0.29135177 4292072427 0 0 0 0
1.1010834 -0.085737042 0.29158109 4292137961 0 0 0 0
1.102078 -0.087246954 0.29568017 4292138214 0 0 0 0
1.1020471 -0.089564815 0.29590875 4292138216 0 0 0 0
1.1020162 -0.091882668 0.29613736 4292138218 0 0 0 0
1.1019853 -0.094200514 0.29636595 4292137963 0 0 0 0
1.1009285 -0.097364224 0.29272783 4292006892 0 0 0 0
1.1019236 -0.098836228 0.29682314 4291875820 0 0 0 0
1.1018927 -0.10115408 0.29705176 4292007149 0 0 0 0
1.1008357 -0.10434052 0.29341587 4292138221 0 0 0 0
1.1008047 -0.10666595 0.2936452 4292203501 0 0 0 0
1.1007737 -0.10899139 0.29387456 4292269547 0 0 0 0
1.1007427 -0.11131682 0.29410392 4292204522 0 0 0 0
1.1007118 -0.11364225 0.29433325 4292204519 0 0 0 0
1.1006808 -0.1159677 0.29456261 4292138981 0 0 0 0
1.1006498 -0.11829311 0.29479194 4292138982 0 0 0 0
1.100619 -0.12061857 0.2950213 4292204519 0 0 0 0
1.100588 -0.122944 0.29525065 4292269797 0 0 0 0
1.100557 -0.12526941 0.29547998 4292138724 0 0 0 0
1.100526 -0.12759486 0.29570934 4292072678 0 0 0 0
1.1004951 -0.1299203 0.29593867 4291941097 0 0 0 0
1.1004641 -0.13224572 0.29616803 4291810280 0 0 0 0
1.1004331 -0.13457116 0.29639736 4291941863 0 0 0 0
1.1004021 -0.1368966 0.29662672 4292138217 0 0 0 0
1.1003712 -0.13922201 0.29685608 4292138220 0 0 0 0
1.1003402 -0.14154747 0.2970854 4292204012 0 0 0 0
1.1003093 -0.1438729 0.29731476 4292400877 0 0 0 0
1.1002784 -0.14619833 0.29754409 4292597998 0 0 0 0
1.0989622 -0.14978953 0.2929607 4292401647 0 0 0 0
1.0989311 -0.15212442 0.29319096 4292270573 0 0 0 0
1.0989 -0.15445934 0.29342124 4292336108 0 0 0 0
1.0988688 -0.15679426 0.29365152 4292401644 0 0 0 0
1.0988379 -0.15912917 0.2938818 4292336364 0 0 0 0
1.0988067 -0.16146408 0.29411209 4292270056 0 0 0 0
1.0987756 -0.16379899 0.29434237 4292072677 0 0 0 0
1.0987445 -0.16613391 0.29457265 4291941606 0 0 0 0
1.0987135 -0.1684688 0.29480293 4292007655 0 0 0 0
1.0986824 -0.17080373 0.29503322 4292138728 0 0 0 0
1.0986513 -0.17313863 0.2952635 4292204265 0 0 0 0
1.0986202 -0.17547354 0.29549378 4292269803 0 0 0 0
1.0985891 -0.17780845 0.29572406 4292138989 0 0 0 0
1.0985581 -0.18014336 0.29595435 4292007402 0 0 0 0
1.098527 -0.18247828 0.29618463 4292138215 0 0 0 0
1.0974662 -0.18593949 0.29257596 4292269802 0 0 0 0
1.097435 -0.18828197 0.29280698 4292270318 0 0 0 0
1.0974038 -0.19062448 0.29303801 4292269549 0 0 0 0
1.0973727 -0.19296695 0.29326904 4292201709 0 0 0 0
1.0973414 -0.19530945 0.29350007 4292204269 0 0 0 0
1.0973102 -0.19765194 0.29373109 4292204270 0 0 0 0
1.0972791 -0.19999443 0.29396212 4292269804 0 0 0 0
1.0972478 -0.20233692 0.29419315 4292335594 0 0 0 0
1.0961862 -0.20586637 0.29059121 4292466667 0 0 0 0
1.0961549 -0.20821646 0.29082301 4292335852 0 0 0 0
1.0961236 -0.21056651 0.29105479 4292270573 0 0 0 0
1.0960923 -0.21291657 0.29128656 4292336366 0 0 0 0
1.096061 -0.21526663 0.29151833 4292467181 0 0 0 0
1.0960298 -0.21761672 0.2917501 4292401644 0 0 0 0
1.0959984 -0.21996681 0.29198188 4292401389 0 0 0 0
1.0959672 -0.22231685 0.29221365 4292401390 0 0 0 0
1.0959358 -0.22466694 0.29244542 4292401644 0 0 0 0
1.0959046 -0.22701703 0.29267722 4292401642 0 0 0 0
1.0958732 -0.22936709 0.292909 4292466924 0 0 0 0
1.095842 -0.23171715 0.29314077 4292401901 0 0 0 0
1.0958107 -0.23406723 0.29337254 4292336363 0 0 0 0
1.0957794 -0.23641729 0.29360431 4292402153 0 0 0 0
1.0957481 -0.23876736 0.29383609 4292467946 0 0 0 0
1.0957168 -0.24111742 0.29406786 4292337388 0 0 0 0
1.0956855 -0.24346751 0.29429963 4292202709 0 0 0 0
1.1137941 0.56404972 0.25236651 4286472786 0 0 0 0
1.1127591 0.56310171 0.24851048 4286275959 0 0 0 0
1.1127287 0.56081611 0.2487359 4287860125 0 0 0 0
1.1126983 0.55853045 0.24896133 4289376691 0 0 0 0
1.111663 0.5575521 0.2451084 4289573322 0 0 0 0
1.1116325 0.55525893 0.24533455 4289835722 0 0 0 0
1.1116019 0.5529657 0.24556074 4289835722 0 0 0 0
1.1115714 0.55067241 0.24578691 4289835979 0 0 0 0
1.1115409 0.54837924 0.24601306 4289967308 0 0 0 0
1.1115103 0.54608601 0.24623924 4290098636 0 0 0 0
1.1124853 0.54253095 0.25053927 4290098380 0 0 0 0
1.1124548 0.54024535 0.2507647 4290098383 0 0 0 0
1.1124244 0.53795975 0.25099012 4290098386 0 0 0 0
1.112394 0.53567415 0.25121552 4290098386 0 0 0 0
1.1123635 0.5333885 0.25144094 4290098387 0 0 0 0
1.1123331 0.53110284 0.25166637 4290164179 0 0 0 0
1.1123027 0.52881718 0.25189179 4290229971 0 0 0 0
1.1122723 0.52653158 0.25211722 4290361297 0 0 0 0
1.1122417 0.52424592 0.25234264 4290295760 0 0 0 0
1.1122113 0.52196032 0.25256807 4290230481 0 0 0 0
1.1121809 0.51967466 0.25279349 4290164946 0 0 0 0
1.1121504 0.517389 0.25301889 4290032849 0 0 0 0
1.11212 0.5151034 0.25324431 4290164177 0 0 0 0
1.1120896 0.51281774 0.25346974 4290295504 0 0 0 0
1.1120592 0.51053214 0.25369516 4290295503 0 0 0 0
1.1120287 0.50824654 0.25392058 4290295762 0 0 0 0
1.1119983 0.50596088 0.25414601 4290295765 0 0 0 0
1.1119679 0.50367522 0.25437143 4290295762 0 0 0 0
1.1119374 0.50138956 0.25459686 4290230224 0 0 0 0
1.111907 0.49910396 0.25482225 4290230481 0 0 0 0
1.1118766 0.4968183 0.25504768 4290230227 0 0 0 0
1.1118462 0.49453267 0.2552731 4290295762 0 0 0 0
1.1118157 0.49224705 0.25549853 4290295762 0 0 0 0
1.1117853 0.48996142 0.25572395 4290295763 0 0 0 0
1.110747 0.48875567 0.25189346 4290295764 0 0 0 0
1.1107165 0.48646241 0.25211963 4290295764 0 0 0 0
1.1106859 0.48416924 0.25234577 4290230484 0 0 0 0
1.1106554 0.48187599 0.25257197 4290165206 0 0 0 0
1.1106249 0.47958279 0.25279814 4290230745 0 0 0 0
1.1105943 0.47728959 0.25302428 4290296279 0 0 0 0
1.1105638 0.47499633 0.25325045 4290296278 0 0 0 0
1.1105332 0.47270316 0.25347662 4290296277 0 0 0 0
1.1105027 0.4704099 0.25370279 4290296020 0 0 0 0
1.1104722 0.46811673 0.25392896 4290296015 0 0 0 0
1.1114506 0.46481946 0.25820357 4290296522 0 0 0 0
1.1104112 0.4635303 0.2543813 4290296527 0 0 0 0
1.1103805 0.46123707 0.25460747 4290296277 0 0 0 0
1.11035 0.45894384 0.25483364 4290361557 0 0 0 0
1.1103195 0.45665064 0.25505981 4290361557 0 0 0 0
1.110289 0.45435739 0.25528598 4290427092 0 0 0 0
1.1102585 0.45206422 0.25551215 4290492883 0 0 0 0
1.1092182 0.45072201 0.25169498 4290558419 0 0 0 0
1.1091876 0.44842121 0.25192189 4290558419 0 0 0 0
1.1101669 0.44518456 0.25619066 4290493140 0 0 0 0
1.1091263 0.44381961 0.25237572 4290427605 0 0 0 0
1.1090958 0.44151881 0.25260267 4290427605 0 0 0 0
1.1090652 0.43921804 0.25282958 4290427349 0 0 0 0
1.1090345 0.43691722 0.2530565 4290492372 0 0 0 0
1.1090039 0.43461642 0.25328341 4290361556 0 0 0 0
1.1089733 0.43231562 0.25351033 4290296280 0 0 0 0
1.1099532 0.42913204 0.25777385 4290427356 0 0 0 0
1.1099225 0.42683885 0.25800002 4290494934 0 0 0 0
1.109892 0.42454562 0.25822616 4290625745 0 0 0 0
1.1098615 0.42225242 0.25845233 4290756820 0 0 0 0
1.109831 0.41995919 0.2586785 4290690007 0 0 0 0
1.1098005 0.41766599 0.25890467 4290558935 0 0 0 0
1.1097699 0.41537276 0.25913084 4290624984 0 0 0 0
1.1097394 0.41307956 0.25935701 4290690519 0 0 0 0
1.1097089 0.41078633 0.25958318 4290624470 0 0 0 0
1.1096783 0.4084931 0.25980935 4290558679 0 0 0 0
1.1096478 0.4061999 0.26003551 4290559192 0 0 0 0
1.1096172 0.40390667 0.26026168 4290624982 0 0 0 0
1.1095867 0.40161347 0.26048785 4290690517 0 0 0 0
1.1095562 0.39932024 0.26071402 4290821592 0 0 0 0
1.1095257 0.39702705 0.26094019 4290690524 0 0 0 0
1.1094952 0.39473385 0.26116636 4290624983 0 0 0 0
1.1094645 0.39244062 0.26139253 4290625234 0 0 0 0
1.109434 0.39014742 0.2616187 4290559700 0 0 0 0
1.1094035 0.38785416 0.26184487 4290559446 0 0 0 0
1.1103854 0.38482225 0.26609331 4290624726 0 0 0 0
1.110355 0.38253659 0.26631874 4290625238 0 0 0 0
1.1103245 0.38025096 0.26654416 4290625237 0 0 0 0
1.1092814 0.37868133 0.26274955 4290690773 0 0 0 0
1.1102637 0.3756797 0.26699498 4290821590 0 0 0 0
1.1102332 0.37339407 0.26722041 4290756312 0 0 0 0
1.1091897 0.37180167 0.26342806 4290691287 0 0 0 0
1.1091592 0.36950845 0.26365423 4290690518 0 0 0 0
1.1081154 0.36789334 0.25986397 4290690006 0 0 0 0
1.1080848 0.36559257 0.26009089 4290624471 0 0 0 0
1.1080542 0.36329177 0.2603178 4290558934 0 0 0 0
1.1080235 0.36099094 0.26054472 4290624981 0 0 0 0
1.1079929 0.35869017 0.26077163 4290625238 0 0 0 0
1.1079623 0.35638937 0.26099855 4290624984 0 0 0 0
1.1079316 0.35408857 0.26122546 4290624983 0 0 0 0
1.108915 0.35116276 0.26546356 4290690519 0 0 0 0
1.1088845 0.3488695 0.26568973 4290690514 0 0 0 0
1.1088539 0.34657633 0.2659159 4290690765 0 0 0 0
1.1098377 0.34368083 0.2701509 4290756563 0 0 0 0
1.1098071 0.3413952 0.27037629 4290691033 0 0 0 0
1.1097767 0.33910954 0.27060172 4290691291 0 0 0 0
1.1097463 0.33682394 0.27082714 4290691806 0 0 0 0
1.1097159 0.33453831 0.27105257 4290758107 0 0 0 0
1.1096854 0.33225265 0.27127799 4290756568 0 0 0 0
1.109655 0.32996702 0.27150342 4290822104 0 0 0 0
1.1096246 0.32768136 0.27172884 4290756825 0 0 0 0
1.1095941 0.32539573 0.27195427 4290691798 0 0 0 0
1.1095637 0.3231101 0.27217969 4290757844 0 0 0 0
1.1095333 0.32082447 0.27240509 4290758360 0 0 0 0
1.1095029 0.31853887 0.27263051 4290625245 0 0 0 0
1.1094724 0.31625322 0.27285594 4290559964 0 0 0 0
1.109442 0.31396759 0.27308136 4290625500 0 0 0 0
1.1083959 0.31217808 0.26930842 4290756830 0 0 0 0
1.1083654 0.30988488 0.26953459 4290887905 0 0 0 0
1.1083349 0.30759165 0.26976076 4291018974 0 0 0 0
1.1083043 0.30529845 0.26998693 4290888155 0 0 0 0
1.1082737 0.30300522 0.2702131 4290757339 0 0 0 0
1.1082432 0.30071202 0.27043927 4290757339 0 0 0 0
1.1082127 0.29841879 0.27066544 4290757595 0 0 0 0
1.1081822 0.29612556 0.27089161 4290757340 0 0 0 0
1.1091681 0.29339686 0.27511016 4290757080 0 0 0 0
1.1091377 0.29111123 0.27533558 4290757076 0 0 0 0
1.1091073 0.2888256 0.275561 4290822871 0 0 0 0
1.10806 0.2869527 0.27179629 4290822875 0 0 0 0
1.1080295 0.2846595 0.27202246 4290888410 0 0 0 0
1.107999 0.28236628 0.27224863 4290823386 0 0 0 0
1.1079684 0.28007308 0.2724748 4290823901 0 0 0 0
1.1079379 0.27777985 0.27270097 4290823137 0 0 0 0
1.1068901 0.2758615 0.26894063 4290888925 0 0 0 0
1.1078769 0.27319342 0.27315331 4290888922 0 0 0 0
1.1078463 0.27090022 0.27337947 4290888665 0 0 0 0
1.1078157 0.26860699 0.27360564 4290953945 0 0 0 0
1.1077852 0.26631379 0.27383181 4291019222 0 0 0 0
1.1067369 0.26435751 0.2700752 4290953940 0 0 0 0
1.1067063 0.26205674 0.27030212 4290954199 0 0 0 0
1.1066756 0.25975591 0.27052903 4290888667 0 0 0 0
1.106645 0.25745514 0.27075595 4290888924 0 0 0 0
1.1066144 0.25515431 0.27098286 4290954461 0 0 0 0
1.1065837 0.25285354 0.27120978 4291085533 0 0 0 0
1.1065531 0.25055274 0.27143669 4291085534 0 0 0 0
1.1065224 0.24825194 0.27166361 4291085278 0 0 0 0
1.1064918 0.24595116 0.27189052 4291085278 0 0 0 0
1.1064612 0.24365035 0.27211747 4291085279 0 0 0 0
1.1064305 0.24134956 0.27234438 4290953952 0 0 0 0
1.1063999 0.23904876 0.2725713 4290822623 0 0 0 0
1.1063693 0.23674797 0.27279821 4290954463 0 0 0 0
1.1063386 0.23444717 0.27302513 4291150815 0 0 0 0
1.106308 0.23214637 0.27325204 4291019488 0 0 0 0
1.1072967 0.22962233 0.2774505 4290954463 0 0 0 0
1.1082855 0.22711347 0.28164735 4290954207 0 0 0 0
1.1082551 0.22482786 0.28187278 4290954466 0 0 0 0
1.1082246 0.22254221 0.2820982 4291020005 0 0 0 0
1.1071745 0.22044948 0.27835518 4291020258 0 0 0 0
1.107144 0.21815626 0.27858135 4291019744 0 0 0 0
1.1071135 0.21586305 0.27880752 4291018978 0 0 0 0
1.107083 0.21356982 0.27903369 4291149796 0 0 0 0
1.1060323 0.21143921 0.27529427 4291217376 0 0 0 0
1.1070219 0.20898341 0.27948603 4291151325 0 0 0 0
1.1069914 0.20669019 0.2797122 4291151069 0 0 0 0
1.1069609 0.20439698 0.27993837 4291085533 0 0 0 0
1.1069303 0.20210376 0.28016451 4291085535 0 0 0 0
1.1068997 0.19981053 0.28039068 4291086050 0 0 0 0
1.1068692 0.19751734 0.28061685 4291085793 0 0 0 0
1.1068387 0.19522411 0.28084302 4291151329 0 0 0 0
1.1068082 0.19293089 0.28106919 4291151584 0 0 0 0
1.1067777 0.19063768 0.28129536 4291151327 0 0 0 0
1.1067472 0.18834446 0.28152153 4291151325 0 0 0 0
1.1067165 0.18605125 0.2817477 4291151579 0 0 0 0
1.106686 0.18375805 0.28197387 4291218141 0 0 0 0
1.1066555 0.18146484 0.28220004 4291151072 0 0 0 0
1.106625 0.17917161 0.28242621 4291085027 0 0 0 0
1.1065944 0.17687838 0.28265238 4291085543 0 0 0 0
1.1065639 0.17458516 0.28287855 4291151844 0 0 0 0
1.1065334 0.17229196 0.28310472 4291151842 0 0 0 0
1.1054809 0.17002487 0.27937877 4291217377 0 0 0 0
1.1054503 0.16772407 0.27960569 4291151841 0 0 0 0
1.1054196 0.16542329 0.2798326 4291151842 0 0 0 0
1.105389 0.16312249 0.28005952 4291151588 0 0 0 0
1.1053584 0.16082169 0.28028643 4291151587 0 0 0 0
1.1053277 0.15852091 0.28051335 4291151586 0 0 0 0
1.1052971 0.15622009 0.28074026 4291151582 0 0 0 0
1.1052665 0.15391929 0.28096718 4291216858 0 0 0 0
1.1052358 0.15161851 0.28119409 4291216861 0 0 0 0
1.1052052 0.14931771 0.28142101 4291217121 0 0 0 0
1.1051745 0.14701691 0.28164792 4291217633 0 0 0 0
1.1051439 0.14471611 0.28187487 4291217378 0 0 0 0
1.1051133 0.14241533 0.28210178 4291217122 0 0 0 0
1.1050826 0.14011453 0.2823287 4291282915 0 0 0 0
1.105052 0.13781373 0.28255561 4291348705 0 0 0 0
1.1050214 0.13551295 0.28278252 4291282912 0 0 0 0
1.1049907 0.13321215 0.28300944 4291216866 0 0 0 0
1.1049601 0.13091135 0.28323635 4291217381 0 0 0 0
1.1049294 0.12861055 0.28346327 4291283176 0 0 0 0
1.1059227 0.12642767 0.28762808 4291348716 0 0 0 0
1.1048682 0.12400895 0.2839171 4291414246 0 0 0 0
1.1048375 0.12170816 0.28414401 4291283169 0 0 0 0
1.1048069 0.11940737 0.28437093 4291217889 0 0 0 0
1.1047763 0.11710657 0.28459784 4291283170 0 0 0 0
1.1034652 0.11461101 0.27990714 4291348452 0 0 0 0
1.104715 0.11250497 0.28505167 4291283430 0 0 0 0
1.1046844 0.11020418 0.28527859 4291218406 0 0 0 0
1.1046537 0.10790338 0.2855055 4291283686 0 0 0 0
1.1046231 0.10560258 0.28573242 4291348965 0 0 0 0
1.1045924 0.10330179 0.28595933 4291414501 0 0 0 0
1.1032807 0.10074937 0.28127423 4291545829 0 0 0 0
1.1045312 0.098700196 0.28641316 4291480037 0 0 0 0
1.1032192 0.096128836 0.28172994 4291414499 0 0 0 0
1.1044699 0.094098605 0.28686702 4291414753 0 0 0 0
1.1044394 0.091797814 0.28709394 4291415009 0 0 0 0
1.1044087 0.089497015 0.28732085 4291414753 0 0 0 0
1.1043781 0.087196216 0.28754777 4291414753 0 0 0 0
1.1043475 0.084895425 0.28777468 4291480290 0 0 0 0
1.1043168 0.082594626 0.2880016 4291545576 0 0 0 0
1.1042862 0.080293834 0.28822851 4291545582 0 0 0 0
1.1042556 0.077993035 0.28845543 4291480041 0 0 0 0
1.1029423 0.075336382 0.2837806 4291480292 0 0 0 0
1.1041943 0.073391438 0.28890926 4291545827 0 0 0 0
1.1041636 0.071090646 0.28913617 4291480803 0 0 0 0
1.104133 0.068789855 0.28936309 4291480803 0 0 0 0
1.1041024 0.066489056 0.28959 4291546595 0 0 0 0
1.1040717 0.064188257 0.28981692 4291612128 0 0 0 0
1.1040411 0.061887462 0.29004383 4291612381 0 0 0 0
1.1040105 0.059586667 0.29027075 4291611872 0 0 0 0
1.1039798 0.057285871 0.29049766 4291611876 0 0 0 0
1.1039492 0.054985072 0.29072458 4291611876 0 0 0 0
1.1039186 0.052684277 0.29095149 4291677157 0 0 0 0
1.1038879 0.050383482 0.29117841 4291742694 0 0 0 0
1.1038573 0.048082687 0.29140532 4291611879 0 0 0 0
1.1038266 0.045781888 0.29163226 4291480038 0 0 0 0
1.103796 0.043481093 0.29185918 4291480806 0 0 0 0
1.1037654 0.041180298 0.29208609 4291546599 0 0 0 0
1.1037347 0.038879503 0.29231301 4291546600 0 0 0 0
1.1024194 0.036061756 0.28765407 4291612394 0 0 0 0
1.1023886 0.033751484 0.28788191 4291546860 0 0 0 0
1.1023579 0.031441212 0.28810978 4291546858 0 0 0 0
1.1036122 0.029676316 0.29322067 4291546856 0 0 0 0
1.1022964 0.026820669 0.28856546 4291611880 0 0 0 0
1.1022656 0.024510395 0.28879333 4291677673 0 0 0 0
1.1022348 0.022200122 0.28902116 4291745768 0 0 0 0
1.1022041 0.019889852 0.28924903 4291677927 0 0 0 0
1.1021733 0.017579578 0.28947687 4291677671 0 0 0 0
1.1021426 0.015269307 0.28970474 4291677671 0 0 0 0
1.1021118 0.012959034 0.28993258 4291743206 0 0 0 0
1.1010522 0.01015182 0.28626001 4291677669 0 0 0 0
1.1010213 0.007833967 0.28648862 4291677670 0 0 0 0
1.1009904 0.0055161132 0.28671721 4291677927 0 0 0 0
1.1009595 0.0031982593 0.28694582 4291743461 0 0 0 0
1.1009287 0.00088040938 0.2871744 4291743460 0 0 0 0
1.1008978 -0.0014374444 0.28740302 4291743461 0 0 0 0
1.1008669 -0.003755298 0.2876316 4291809511 0 0 0 0
1.1008362 -0.0060731517 0.28786021 4291875047 0 0 0 0
1.1008053 -0.008391005 0.2880888 4291743976 0 0 0 0
1.1007744 -0.010708855 0.28831741 4291612903 0 0 0 0
1.1007435 -0.013026709 0.288546 4291743974 0 0 0 0
1.1007127 -0.015344559 0.28877461 4291875302 0 0 0 0
1.1006818 -0.017662417 0.28900319 4291875559 0 0 0 0
1.1006509 -0.019980274 0.28923181 4291876069 0 0 0 0
1.10062 -0.022298124 0.28946039 4291875555 0 0 0 0
1.0995588 -0.025226647 0.28579968 4291809508 0 0 0 0
1.0995278 -0.027552081 0.28602904 4291875302 0 0 0 0
1.0994968 -0.029877516 0.28625837 4291940841 0 0 0 0
1.0994658 -0.032202948 0.28648773 4291875309 0 0 0 0
1.099435 -0.03452839 0.28671709 4291809770 0 0 0 0
1.099404 -0.036853816 0.28694642 4291875304 0 0 0 0
1.099373 -0.039179251 0.28717577 4291941098 0 0 0 0
1.0993421 -0.041504692 0.2874051 4291940844 0 0 0 0
1.1003423 -0.043158796 0.29151779 4291940584 0 0 0 0
1.0992801 -0.04615555 0.28786379 4291940581 0 0 0 0
1.0992491 -0.048480984 0.28809315 4291941095 0 0 0 0
1.0992182 -0.050806426 0.28832251 4291940841 0 0 0 0
1.0991873 -0.053131852 0.28855184 4291940585 0 0 0 0
1.0991563 -0.055457287 0.2887812 4291875561 0 0 0 0
1.0991253 -0.057782728 0.28901052 4291811050 0 0 0 0
1.0990944 -0.060108155 0.28923988 4291942380 0 0 0 0
1.0990634 -0.062433589 0.28946921 4292073707 0 0 0 0
1.0990324 -0.064759031 0.28969857 4292006378 0 0 0 0
1.0990014 -0.067084461 0.28992793 4292006376 0 0 0 0
1.0989705 -0.069409892 0.29015726 4292006631 0 0 0 0
1.0989395 -0.07173533 0.29038662 4292007147 0 0 0 0
1.0989085 -0.074060753 0.29061595 4291941360 0 0 0 0
1.0988777 -0.076386206 0.2908453 4291810286 0 0 0 0
1.0988467 -0.078711621 0.29107466 4291941357 0 0 0 0
1.0988157 -0.081037059 0.29130399 4292006893 0 0 0 0
1.0987847 -0.083362505 0.29153335 4292006893 0 0 0 0
1.0997868 -0.084880158 0.29563257 4292072683 0 0 0 0
1.099756 -0.087197997 0.29586115 4292006889 0 0 0 0
1.0997251 -0.089515857 0.29608977 4292006633 0 0 0 0
1.0996943 -0.091833711 0.29631835 4292006634 0 0 0 0
1.0996634 -0.094151556 0.29654697 4292072170 0 0 0 0
1.0996325 -0.09646941 0.29677555 4292006891 0 0 0 0
1.0996016 -0.09878727 0.29700416 4292006892 0 0 0 0
1.0995708 -0.10110512 0.29723275 4292072685 0 0 0 0
1.0985061 -0.10429139 0.29359746 4292072942 0 0 0 0
1.0984751 -0.10661683 0.29382682 4292138479 0 0 0 0
1.0984441 -0.10894228 0.29405615 4292138476 0 0 0 0
1.0984132 -0.11126769 0.29428551 4292138986 0 0 0 0
1.0983822 -0.11359313 0.29451483 4292138981 0 0 0 0
1.0983512 -0.11591858 0.29474419 4292007905 0 0 0 0
1.0983202 -0.118244 0.29497352 4291942371 0 0 0 0
1.0982894 -0.12056945 0.29520288 4292007141 0 0 0 0
1.0982584 -0.12289488 0.29543224 4292071905 0 0 0 0
1.0982274 -0.1252203 0.29566157 4292071902 0 0 0 0
1.0981964 -0.12754574 0.29589093 4292072162 0 0 0 0
1.0981655 -0.12987117 0.29612026 4292006886 0 0 0 0
1.0981345 -0.13219661 0.29634961 4292007140 0 0 0 0
1.0968096 -0.13573074 0.29176134 4292072931 0 0 0 0
1.0980726 -0.13684748 0.2968083 4292204262 0 0 0 0
1.0967474 -0.14040057 0.2922219 4292138474 0 0 0 0
1.0967164 -0.14273548 0.29245219 4292072683 0 0 0 0
1.0979797 -0.14382379 0.29749635 4292204013 0 0 0 0
1.0979488 -0.14614922 0.29772568 4292401134 0 0 0 0
1.0979178 -0.14847465 0.29795504 4292269807 0 0 0 0
1.0965919 -0.15207511 0.29337329 4292138734 0 0 0 0
1.096561 -0.15441003 0.29360357 4292204782 0 0 0 0
1.0965298 -0.15674494 0.29383385 4292270830 0 0 0 0
1.0964987 -0.15907985 0.29406413 4292270319 0 0 0 0
1.0964676 -0.16141476 0.29429442 4292204008 0 0 0 0
1.0964365 -0.16374967 0.2945247 4292138209 0 0 0 0
1.0964055 -0.16608459 0.29475498 4292007140 0 0 0 0
1.0963744 -0.16841948 0.29498526 4292072679 0 0 0 0
1.0963433 -0.1707544 0.29521555 4292138216 0 0 0 0
1.0963122 -0.17308931 0.29544583 4292204265 0 0 0 0
1.0962811 -0.17542422 0.29567611 4292270058 0 0 0 0
1.0952131 -0.17886253 0.2920658 4292204524 0 0 0 0
1.0951818 -0.18120502 0.29229683 4292072425 0 0 0 0
1.0951507 -0.18354751 0.29252785 4292138214 0 0 0 0
1.0951195 -0.18589 0.29275888 4292204011 0 0 0 0
1.0950882 -0.1882325 0.29298991 4292203760 0 0 0 0
1.0950571 -0.19057499 0.29322094 4292269294 0 0 0 0
1.0950259 -0.19291748 0.29345196 4292204013 0 0 0 0
1.0949948 -0.19525997 0.29368299 4292138990 0 0 0 0
1.0949636 -0.19760245 0.29391402 4292138479 0 0 0 0
1.0949323 -0.19994496 0.29414505 4292072685 0 0 0 0
1.0938632 -0.20346664 0.29054296 4292203756 0 0 0 0
1.0938319 -0.20581673 0.29077473 4292269547 0 0 0 0
1.0938007 -0.20816681 0.29100651 4292269547 0 0 0 0
1.0937693 -0.21051687 0.29123828 4292204267 0 0 0 0
1.0937381 -0.21286693 0.29147005 4292269804 0 0 0 0
1.0937067 -0.21521699 0.29170185 4292400876 0 0 0 0
1.0936755 -0.21756709 0.29193363 4292400876 0 0 0 0
1.0936441 -0.21991718 0.2921654 4292401133 0 0 0 0
1.0936129 -0.22226721 0.29239717 4292401391 0 0 0 0
1.0935816 -0.2246173 0.29262894 4292401901 0 0 0 0
1.0935503 -0.22696739 0.29286072 4292401388 0 0 0 0
1.093519 -0.22931744 0.29309249 4292401389 0 0 0 0
1.0934877 -0.2316675 0.29332426 4292335599 0 0 0 0
1.0934564 -0.2340176 0.29355606 4292270059 0 0 0 0
1.0934252 -0.23636766 0.29378784 4292401384 0 0 0 0
1.0933938 -0.23871772 0.29401961 4292534507 0 0 0 0
1.0933626 -0.24106778 0.29425138 4292007663 0 0 0 0
1.0933312 -0.24341787 0.29448316 4291480011 0 0 0 0
1.1104695 0.56314993 0.24868897 4286408317 0 0 0 0
1.1094267 0.5621869 0.24483514 4288060078 0 0 0 0
1.1093962 0.55989373 0.24506129 4289706429 0 0 0 0
1.1093657 0.55760056 0.24528746 4289572301 0 0 0 0
1.1093352 0.55530733 0.24551363 4289506507 0 0 0 0
1.1093047 0.5530141 0.2457398 4289572041 0 0 0 0
1.109274 0.55072087 0.24596597 4289703884 0 0 0 0
1.1092435 0.5484277 0.24619214 4289835728 0 0 0 0
1.109213 0.54613441 0.24641831 4289967055 0 0 0 0
1.1101955 0.54257923 0.25071776 4290032589 0 0 0 0
1.1101651 0.54029363 0.25094318 4290098383 0 0 0 0
1.1101347 0.53800803 0.25116858 4290098641 0 0 0 0
1.1101042 0.53572237 0.251394 4290098643 0 0 0 0
1.1100738 0.53343678 0.25161943 4290098645 0 0 0 0
1.1100434 0.53115112 0.25184485 4290164179 0 0 0 0
1.110013 0.52886546 0.25207028 4290164178 0 0 0 0
1.1099825 0.52657986 0.2522957 4290229968 0 0 0 0
1.1099521 0.5242942 0.25252113 4290230223 0 0 0 0
1.1099217 0.52200854 0.25274655 4290230225 0 0 0 0
1.1098912 0.51972294 0.25297195 4290164691 0 0 0 0
1.1098608 0.51743728 0.25319737 4290164433 0 0 0 0
1.108816 0.51632267 0.24935851 4290295247 0 0 0 0
1.1097999 0.51286602 0.25364822 4290426320 0 0 0 0
1.1097695 0.51058042 0.25387365 4290295505 0 0 0 0
1.1097391 0.50829476 0.25409907 4290229970 0 0 0 0
1.1097087 0.50600916 0.2543245 4290229972 0 0 0 0
1.1096781 0.5037235 0.25454989 4290295506 0 0 0 0
1.1096478 0.50143784 0.25477532 4290229969 0 0 0 0
1.1096174 0.49915224 0.25500074 4290230227 0 0 0 0
1.1085718 0.49797693 0.25116786 4290230230 0 0 0 0
1.1095564 0.49458095 0.25545159 4290295762 0 0 0 0
1.109526 0.49229532 0.25567701 4290295246 0 0 0 0
1.1094956 0.4900097 0.25590244 4290295759 0 0 0 0
1.1084497 0.4888041 0.25207251 4290295505 0 0 0 0
1.1084192 0.48651084 0.25229868 4290296015 0 0 0 0
1.1083887 0.48421767 0.25252485 4290165198 0 0 0 0
1.108358 0.48192441 0.25275102 4290099413 0 0 0 0
1.1083275 0.47963122 0.25297719 4290164957 0 0 0 0
1.108297 0.47733802 0.25320336 4290296026 0 0 0 0
1.1082665 0.47504479 0.25342953 4290296279 0 0 0 0
1.108236 0.47275159 0.2536557 4290296277 0 0 0 0
1.1082054 0.47045836 0.25388187 4290296787 0 0 0 0
1.1081749 0.46816516 0.25410804 4290296784 0 0 0 0
1.1081444 0.4658719 0.25433421 4290231246 0 0 0 0
1.1091304 0.46258208 0.25860748 4290165713 0 0 0 0
1.1080832 0.4612855 0.25478655 4290231253 0 0 0 0
1.1080527 0.45899227 0.25501272 4290296277 0 0 0 0
1.1080222 0.45669907 0.25523889 4290361814 0 0 0 0
1.1079917 0.45440584 0.25546506 4290427346 0 0 0 0
1.1079612 0.45211264 0.25569123 4290558415 0 0 0 0
1.1079307 0.44981945 0.2559174 4290689489 0 0 0 0
1.1068828 0.44846979 0.25210157 4290624467 0 0 0 0
1.1078695 0.44523302 0.25636974 4290558677 0 0 0 0
1.1068215 0.44386822 0.2525554 4290493143 0 0 0 0
1.1067909 0.44156739 0.25278232 4290427349 0 0 0 0
1.1054881 0.44040817 0.24796057 4290427348 0 0 0 0
1.1067296 0.43696582 0.25323614 4290427090 0 0 0 0
1.106699 0.43466502 0.25346306 4290296528 0 0 0 0
1.1066684 0.4323642 0.25368997 4290230740 0 0 0 0
1.1066377 0.43006343 0.25391689 4290361560 0 0 0 0
1.1066071 0.42776266 0.2541438 4290493397 0 0 0 0
1.1075947 0.42459407 0.25840524 4290691027 0 0 0 0
1.1075642 0.42230085 0.25863141 4290886869 0 0 0 0
1.1075337 0.42000762 0.25885758 4290755031 0 0 0 0
1.1075032 0.41771442 0.25908375 4290624214 0 0 0 0
1.1074727 0.41542119 0.25930992 4290690774 0 0 0 0
1.107442 0.41312799 0.25953609 4290755541 0 0 0 0
1.1074115 0.41083476 0.25976226 4290624212 0 0 0 0
1.107381 0.40854156 0.25998843 4290558677 0 0 0 0
1.1073505 0.40624833 0.2602146 4290558935 0 0 0 0
1.10732 0.40395513 0.26044077 4290624726 0 0 0 0
1.1072894 0.4016619 0.26066694 4290624726 0 0 0 0
1.1072589 0.39936867 0.26089311 4290690262 0 0 0 0
1.1072284 0.39707547 0.26111928 4290624727 0 0 0 0
1.1071978 0.39478227 0.26134545 4290624725 0 0 0 0
1.1071672 0.39248905 0.26157162 4290559699 0 0 0 0
1.1071367 0.39019585 0.26179776 4290559700 0 0 0 0
1.1060863 0.38864911 0.25800139 4290559701 0 0 0 0
1.1080956 0.38487053 0.2662718 4290625238 0 0 0 0
1.1080652 0.38258487 0.26649722 4290559703 0 0 0 0
1.1070147 0.38102296 0.26270244 4290559702 0 0 0 0
1.106984 0.37872979 0.26292861 4290625237 0 0 0 0
1.1069535 0.37643653 0.26315477 4290756312 0 0 0 0
1.106923 0.37414333 0.26338094 4290756316 0 0 0 0
1.1068925 0.3718501 0.26360711 4290756312 0 0 0 0
1.1058412 0.37024271 0.25981674 4290756309 0 0 0 0
1.1058105 0.36794195 0.26004365 4290821077 0 0 0 0
1.1057799 0.36564118 0.26027057 4290690260 0 0 0 0
1.104473 0.36416918 0.25547966 4290624980 0 0 0 0
1.1057186 0.36103955 0.2607244 4290625237 0 0 0 0
1.105688 0.35873878 0.26095131 4290691030 0 0 0 0
1.1056573 0.35643795 0.26117823 4290626008 0 0 0 0
1.1056267 0.35413715 0.26140514 4290625496 0 0 0 0
1.1066177 0.35121119 0.26564264 4290625241 0 0 0 0
1.1065872 0.34891793 0.26586881 4290690773 0 0 0 0
1.1065567 0.34662476 0.26609498 4290690769 0 0 0 0
1.106526 0.3443315 0.26632115 4290756308 0 0 0 0
1.1075175 0.34144348 0.27055478 4290690776 0 0 0 0
1.1074871 0.33915782 0.27078021 4290691034 0 0 0 0
1.1074566 0.33687219 0.27100563 4290691292 0 0 0 0
1.1074262 0.33458659 0.27123106 4290756314 0 0 0 0
1.1073958 0.33230093 0.27145648 4290821593 0 0 0 0
1.1073654 0.3300153 0.2716819 4290887642 0 0 0 0
1.1073349 0.32772964 0.27190733 4290757083 0 0 0 0
1.1073045 0.32544401 0.27213272 4290625497 0 0 0 0
1.1072741 0.32315838 0.27235815 4290689495 0 0 0 0
1.1072435 0.32087275 0.27258357 4290755289 0 0 0 0
1.1072131 0.31858715 0.272809 4290559196 0 0 0 0
1.1071827 0.31630149 0.27303442 4290428891 0 0 0 0
1.1071523 0.31401587 0.27325985 4290560219 0 0 0 0
1.1060987 0.31222653 0.2694875 4290756828 0 0 0 0
1.106068 0.3099333 0.26971367 4290822366 0 0 0 0
1.1060375 0.30764008 0.26993984 4290953436 0 0 0 0
1.106007 0.30534688 0.27016601 4290822617 0 0 0 0
1.1059765 0.30305365 0.27039218 4290757082 0 0 0 0
1.1059459 0.30076048 0.27061835 4290757596 0 0 0 0
1.1059154 0.29846722 0.27084452 4290757342 0 0 0 0
1.1058849 0.29617399 0.27107069 4290757344 0 0 0 0
1.1068784 0.29344514 0.27528864 4290822620 0 0 0 0
1.106848 0.29115951 0.27551407 4290756824 0 0 0 0
1.1057932 0.28929436 0.2717492 4290757337 0 0 0 0
1.1057627 0.28700113 0.27197537 4290757083 0 0 0 0
1.1057322 0.28470793 0.27220154 4290822872 0 0 0 0
1.1057017 0.2824147 0.27242771 4290692054 0 0 0 0
1.1056712 0.28012151 0.27265388 4290626522 0 0 0 0
1.1056406 0.27782831 0.27288005 4290757598 0 0 0 0
1.1045852 0.27591008 0.26912028 4290888665 0 0 0 0
1.1055795 0.27324188 0.27333236 4290888916 0 0 0 0
1.1045239 0.27130848 0.26957414 4290888407 0 0 0 0
1.1055185 0.26865542 0.2737847 4291019227 0 0 0 0
1.1044626 0.26670691 0.27002797 4291150301 0 0 0 0
1.104432 0.26440611 0.27025488 4291019486 0 0 0 0
1.1044014 0.26210532 0.2704818 4290953949 0 0 0 0
1.1043707 0.25980452 0.27070871 4290888668 0 0 0 0
1.1043401 0.25750372 0.27093562 4290822877 0 0 0 0
1.1043094 0.25520292 0.27116254 4290888158 0 0 0 0
1.1042788 0.25290215 0.27138945 4291019997 0 0 0 0
1.1042482 0.25060132 0.27161637 4291019997 0 0 0 0
1.1042175 0.24830054 0.27184328 4291085278 0 0 0 0
1.1041869 0.24599975 0.2720702 4291019744 0 0 0 0
1.1041563 0.24369894 0.27229711 4291019743 0 0 0 0
1.1041256 0.24139816 0.27252403 4290888414 0 0 0 0
1.104095 0.23909736 0.27275094 4290757598 0 0 0 0
1.1040643 0.23679657 0.27297786 4291019998 0 0 0 0
1.1040337 0.23449576 0.27320477 4291281886 0 0 0 0
1.1040031 0.23219498 0.27343169 4291150302 0 0 0 0
1.1049994 0.22967076 0.27762958 4291019486 0 0 0 0
1.1059959 0.22716175 0.28182584 4291019742 0 0 0 0
1.1059654 0.22487612 0.28205127 4291019744 0 0 0 0
1.105935 0.22259049 0.28227669 4291019746 0 0 0 0
1.1048772 0.22049792 0.27853426 4291085281 0 0 0 0
1.1048467 0.21820471 0.2787604 4291085280 0 0 0 0
1.1048162 0.21591149 0.27898657 4291084769 0 0 0 0
1.1037581 0.2137886 0.27524704 4291085027 0 0 0 0
1.1037275 0.2114878 0.27547395 4291150816 0 0 0 0
1.1036968 0.209187 0.27570087 4291151070 0 0 0 0
1.1036662 0.20688622 0.27592778 4291150814 0 0 0 0
1.1036355 0.20458542 0.2761547 4291085278 0 0 0 0
1.104633 0.20215219 0.28034359 4291085537 0 0 0 0
1.1046025 0.19985898 0.28056976 4291086052 0 0 0 0
1.1045719 0.19756578 0.28079593 4291086051 0 0 0 0
1.1045414 0.19527255 0.2810221 4291086050 0 0 0 0
1.1045109 0.19297934 0.28124827 4291151328 0 0 0 0
1.1044804 0.19068612 0.28147444 4291085790 0 0 0 0
1.1044497 0.18839289 0.28170061 4291085788 0 0 0 0
1.1044192 0.18609968 0.28192678 4291151579 0 0 0 0
1.1043887 0.18380648 0.28215295 4291216861 0 0 0 0
1.1043582 0.18151326 0.28237912 4291084768 0 0 0 0
1.1043277 0.17922005 0.28260529 4290954210 0 0 0 0
1.1042972 0.17692682 0.28283146 4290952677 0 0 0 0
1.1042666 0.17463361 0.28305763 4290955491 0 0 0 0
1.1032066 0.17237428 0.27933151 4291021025 0 0 0 0
1.103176 0.17007348 0.27955845 4291151841 0 0 0 0
1.1031454 0.16777267 0.27978536 4291151841 0 0 0 0
1.1031147 0.16547188 0.28001228 4291217378 0 0 0 0
1.1030841 0.16317108 0.28023919 4291282915 0 0 0 0
1.1030535 0.16087028 0.28046611 4291348450 0 0 0 0
1.1030228 0.1585695 0.28069302 4291282913 0 0 0 0
1.1029922 0.1562687 0.28091994 4291217119 0 0 0 0
1.1029615 0.1539679 0.28114685 4291216861 0 0 0 0
1.1029309 0.15166712 0.28137377 4291216864 0 0 0 0
1.1029003 0.14936632 0.28160068 4291217123 0 0 0 0
1.1028696 0.14706552 0.2818276 4291217635 0 0 0 0
1.102839 0.14476472 0.28205451 4291217636 0 0 0 0
1.1028084 0.14246392 0.28228143 4291217635 0 0 0 0
1.1027777 0.14016312 0.28250834 4291283170 0 0 0 0
1.1027471 0.13786232 0.28273526 4291348446 0 0 0 0
1.1027164 0.13556154 0.28296217 4291151579 0 0 0 0
1.1026858 0.13326074 0.28318909 4291020511 0 0 0 0
1.1026552 0.13095994 0.283416 4291151843 0 0 0 0
1.1026245 0.12865914 0.28364292 4291282917 0 0 0 0
1.1025939 0.12635835 0.28386983 4291348968 0 0 0 0
1.1025633 0.12405755 0.28409675 4291479779 0 0 0 0
1.1025326 0.12175675 0.28432369 4291283423 0 0 0 0
1.102502 0.11945596 0.28455061 4291152351 0 0 0 0
1.1024714 0.11715516 0.28477752 4291217886 0 0 0 0
1.1011509 0.11465981 0.28008753 4291348960 0 0 0 0
1.1024101 0.11255357 0.28523135 4291283683 0 0 0 0
1.1023796 0.11025278 0.28545827 4291283427 0 0 0 0
1.1023489 0.10795198 0.28568518 4291348963 0 0 0 0
1.1023183 0.10565118 0.2859121 4291414498 0 0 0 0
1.1022877 0.10335039 0.28613901 4291414240 0 0 0 0
1.102257 0.10104959 0.28636593 4291414498 0 0 0 0
1.1022264 0.098748796 0.28659284 4291415268 0 0 0 0
1.1021957 0.096448004 0.28681976 4291415011 0 0 0 0
1.1008739 0.093867354 0.2821382 4291415010 0 0 0 0
1.1021345 0.091846406 0.28727359 4291415010 0 0 0 0
1.1021038 0.089545615 0.2875005 4291415010 0 0 0 0
1.1020732 0.087244816 0.28772742 4291414754 0 0 0 0
1.1020426 0.084944017 0.28795433 4291480290 0 0 0 0
1.1020119 0.082643218 0.28818125 4291545827 0 0 0 0
1.1019813 0.080342427 0.28840816 4291480549 0 0 0 0
1.1006587 0.077695452 0.28373316 4291480035 0 0 0 0
1.1006279 0.075385183 0.283961 4291480290 0 0 0 0
1.1018894 0.073440038 0.28908893 4291546084 0 0 0 0
1.1018587 0.071139246 0.28931585 4291481062 0 0 0 0
1.1018281 0.068838447 0.28954276 4291480805 0 0 0 0
1.1017975 0.066537648 0.28976968 4291546597 0 0 0 0
1.1017668 0.064236857 0.28999659 4291612132 0 0 0 0
1.1017362 0.061936058 0.29022351 4291612387 0 0 0 0
1.1017056 0.059635263 0.29045042 4291612387 0 0 0 0
1.1016749 0.057334468 0.29067734 4291612388 0 0 0 0
1.1016443 0.055033673 0.29090425 4291677668 0 0 0 0
1.1016136 0.052732874 0.29113117 4291743204 0 0 0 0
1.101583 0.050432079 0.29135808 4291874021 0 0 0 0
1.1015524 0.048131283 0.291585 4291611879 0 0 0 0
1.1015217 0.045830484 0.29181191 4291349734 0 0 0 0
1.1014911 0.043529689 0.29203883 4291415526 0 0 0 0
1.1014605 0.041228894 0.29226574 4291481062 0 0 0 0
1.1001358 0.038420826 0.28760663 4291546598 0 0 0 0
1.1001049 0.036110554 0.28783447 4291612136 0 0 0 0
1.1000742 0.033800282 0.28806233 4291546601 0 0 0 0
1.1000434 0.031490009 0.28829017 4291481064 0 0 0 0
1.1000127 0.029179737 0.28851801 4291546855 0 0 0 0
1.0999819 0.026869465 0.28874588 4291612392 0 0 0 0
1.0999511 0.024559192 0.28897372 4291677929 0 0 0 0
1.0999204 0.02224892 0.28920159 4291743464 0 0 0 0
1.0998896 0.019938648 0.28942943 4291677927 0 0 0 0
1.0998589 0.017628375 0.28965726 4291612135 0 0 0 0
1.0987918 0.014836481 0.28598383 4291612391 0 0 0 0
1.0997974 0.013007831 0.29011297 4291677926 0 0 0 0
1.0987302 0.010200777 0.28644103 4291612645 0 0 0 0
1.0986993 0.0078829238 0.28666961 4291612647 0 0 0 0
1.0986685 0.0055650701 0.28689823 4291612649 0 0 0 0
1.0986376 0.0032472163 0.28712681 4291678183 0 0 0 0
1.0986067 0.00092936639 0.28735542 4291678182 0 0 0 0
1.0985758 -0.0013884873 0.28758401 4291743718 0 0 0 0
1.098545 -0.0037063409 0.28781262 4291809511 0 0 0 0
1.0985141 -0.0060241949 0.2880412 4291940326 0 0 0 0
1.0984833 -0.0083420482 0.28826982 4291874790 0 0 0 0
1.0984524 -0.010659899 0.2884984 4291809510 0 0 0 0
1.0984216 -0.012977752 0.28872699 4291810023 0 0 0 0
1.0983907 -0.015295602 0.2889556 4291875561 0 0 0 0
1.0983598 -0.017613459 0.28918418 4291941099 0 0 0 0
1.0983289 -0.019931316 0.2894128 4292072425 0 0 0 0
1.0982981 -0.022249166 0.28964138 4291939303 0 0 0 0
1.0972292 -0.025177531 0.28598127 4291809510 0 0 0 0
1.0971982 -0.027502963 0.28621063 4291809766 0 0 0 0
1.0971673 -0.029828398 0.28643996 4291875303 0 0 0 0
1.0971364 -0.03215383 0.28666931 4291809769 0 0 0 0
1.0971054 -0.034479272 0.28689867 4291809512 0 0 0 0
1.0970744 -0.036804698 0.287128 4291874791 0 0 0 0
1.0970434 -0.039130133 0.28735736 4291940586 0 0 0 0
1.0970125 -0.041455574 0.28758669 4291875309 0 0 0 0
1.0969815 -0.043781001 0.28781605 4291875050 0 0 0 0
1.0969505 -0.046106435 0.28804541 4291809511 0 0 0 0
1.0969195 -0.04843187 0.28827474 4291809767 0 0 0 0
1.0968887 -0.050757308 0.28850409 4291810023 0 0 0 0
1.0968577 -0.053082734 0.28873342 4291875303 0 0 0 0
1.0968267 -0.055408169 0.28896278 4291743975 0 0 0 0
1.0967957 -0.05773361 0.28919211 4291678441 0 0 0 0
1.0967648 -0.060059037 0.28942147 4291940843 0 0 0 0
1.0967338 -0.062384471 0.28965083 4292202986 0 0 0 0
1.0967028 -0.064709909 0.28988016 4292072169 0 0 0 0
1.0966719 -0.067035347 0.29010952 4292006631 0 0 0 0
1.0966409 -0.06936077 0.29033884 4292072421 0 0 0 0
1.09661 -0.071686216 0.2905682 4292137961 0 0 0 0
1.096579 -0.074011639 0.29079756 4291941613 0 0 0 0
1.0965481 -0.076337084 0.29102689 4291745004 0 0 0 0
1.0965171 -0.078662507 0.29125625 4291876076 0 0 0 0
1.0964861 -0.080987938 0.29148558 4292006892 0 0 0 0
1.0964551 -0.083313391 0.29171494 4292006892 0 0 0 0
1.0974648 -0.084831201 0.29581356 4292006635 0 0 0 0
1.0974339 -0.087149039 0.29604214 4291941098 0 0 0 0
1.0974032 -0.0894669 0.29627076 4291941097 0 0 0 0
1.0963312 -0.092615105 0.29263231 4291941097 0 0 0 0
1.0963004 -0.094940558 0.29286167 4292006377 0 0 0 0
1.0962694 -0.097265989 0.293091 4292072681 0 0 0 0
1.0962384 -0.099591412 0.29332036 4292203754 0 0 0 0
1.0962075 -0.10191686 0.29354972 4292138220 0 0 0 0
1.0961765 -0.10424228 0.29377905 4292072683 0 0 0 0
1.0961455 -0.10656771 0.2940084 4292073195 0 0 0 0
1.0961145 -0.10889316 0.29423773 4292073195 0 0 0 0
1.0960836 -0.11121858 0.29446709 4292073451 0 0 0 0
1.0960526 -0.11354401 0.29469642 4292072937 0 0 0 0
1.0960217 -0.11586946 0.29492578 4291875047 0 0 0 0
1.0959907 -0.11819488 0.29515514 4291743975 0 0 0 0
1.0959598 -0.12052033 0.29538447 4291809768 0 0 0 0
1.0959288 -0.12284576 0.29561383 4291940582 0 0 0 0
1.0958978 -0.12517118 0.29584315 4292004323 0 0 0 0
1.0958668 -0.12749663 0.29607251 4292072677 0 0 0 0
1.0958359 -0.12982206 0.29630184 4292138728 0 0 0 0
1.0958049 -0.13214748 0.2965312 4292204008 0 0 0 0
1.0944705 -0.13568142 0.29194367 4292269800 0 0 0 0
1.0957431 -0.13679837 0.29698989 4292335593 0 0 0 0
1.0944084 -0.14035125 0.29240423 4292139242 0 0 0 0
1.0943773 -0.14268616 0.29263452 4292007147 0 0 0 0
1.0956501 -0.14377467 0.29767793 4292071916 0 0 0 0
1.0956192 -0.1461001 0.29790729 4292204778 0 0 0 0
1.0955882 -0.14842553 0.29813662 4292138472 0 0 0 0
1.0942529 -0.15202579 0.29355562 4292072938 0 0 0 0
