# .PCD v0.7 - Point Cloud Data file format
VERSION 0.7
FIELDS x y z rgb normal_x normal_y normal_z curvature
SIZE 4 4 4 4 4 4 4 4
TYPE F F F U F F F F
COUNT 1 1 1 1 1 1 1 1
WIDTH 930
HEIGHT 1
VIEWPOINT 0 0 0 1 0 0 0
POINTS 930
DATA ascii
1.2396342 0.28598782 0.31074661 4290426318 0 0 0 0
1.2383919 0.28462604 0.30291632 4290426323 0 0 0 0
1.238969 0.28199881 0.30715767 4290491347 0 0 0 0
1.2389396 0.27979088 0.30737543 4290623188 0 0 0 0
1.2401237 0.2767899 0.31563598 4290754515 0 0 0 0
1.2400945 0.27459714 0.31585225 4290689747 0 0 0 0
1.2400653 0.27240437 0.3160685 4290689744 0 0 0 0
1.2406433 0.26983783 0.32030401 4290623950 0 0 0 0
1.2406142 0.26765263 0.32051951 4290558415 0 0 0 0
1.2405851 0.26546744 0.32073501 4290623952 0 0 0 0
1.240556 0.26328227 0.32095054 4290623957 0 0 0 0
1.2405269 0.26109704 0.32116604 4290755035 0 0 0 0
1.2404978 0.25891188 0.32138157 4290820569 0 0 0 0
1.2404687 0.25672668 0.32159707 4290754776 0 0 0 0
1.2404395 0.25454149 0.3218126 4290688983 0 0 0 0
1.2408664 0.25212145 0.3250379 4290689239 0 0 0 0
1.2403814 0.25017112 0.32224363 4290754774 0 0 0 0
1.2397442 0.24828392 0.31844738 4290754518 0 0 0 0
1.2403232 0.24580075 0.32267466 4290754263 0 0 0 0
1.2402941 0.24361555 0.32289016 4290689240 0 0 0 0
1.240265 0.24143036 0.32310569 4290624472 0 0 0 0
1.2406923 0.23904444 0.32632762 4290623705 0 0 0 0
1.2406633 0.23686495 0.32654256 4290689239 0 0 0 0
1.2406342 0.23468545 0.32675752 4290689238 0 0 0 0
1.2406052 0.23250595 0.32697248 4290689238 0 0 0 0
1.2405761 0.23032644 0.32718742 4290689495 0 0 0 0
1.2411562 0.22791719 0.3314074 4290689493 0 0 0 0
1.2411273 0.22574528 0.33162159 4290623955 0 0 0 0
1.2410984 0.22357334 0.33183581 4290623953 0 0 0 0
1.2410694 0.22140144 0.33205003 4290558415 0 0 0 0
1.2410405 0.21922949 0.33226421 4290558931 0 0 0 0
1.2410116 0.21705757 0.33247843 4290492887 0 0 0 0
1.2415923 0.21470138 0.33669305 4290426582 0 0 0 0
1.2415634 0.21253707 0.33690649 4290557909 0 0 0 0
1.2409248 0.21054181 0.33312103 4290689239 0 0 0 0
1.240896 0.2083699 0.33333525 4290623449 0 0 0 0
1.241477 0.20604405 0.33754689 4290623446 0 0 0 0
1.2414482 0.20387968 0.33776033 4290623443 0 0 0 0
1.2414193 0.20171537 0.3379738 4290623441 0 0 0 0
1.2420009 0.19941983 0.34218255 4290557903 0 0 0 0
1.2419722 0.19726306 0.34239525 4290492369 0 0 0 0
1.2419435 0.19510631 0.34260798 4290557908 0 0 0 0
1.2419147 0.19294953 0.34282067 4290623443 0 0 0 0
1.241886 0.19079278 0.34303337 4290557906 0 0 0 0
1.2424681 0.18854274 0.34723753 4290492628 0 0 0 0
1.2424395 0.18639356 0.34744951 4290492630 0 0 0 0
1.2424109 0.18424438 0.34766147 4290492629 0 0 0 0
1.2423823 0.1820952 0.34787342 4290492629 0 0 0 0
1.2417424 0.18000898 0.34409693 4290492628 0 0 0 0
1.2417138 0.17785221 0.34430966 4290492115 0 0 0 0
1.241685 0.17569546 0.34452236 4290557647 0 0 0 0
1.2416563 0.1735387 0.34473509 4290557900 0 0 0 0
1.2416276 0.17138195 0.34494779 4290623438 0 0 0 0
1.2415988 0.16922519 0.34516048 4290492113 0 0 0 0
1.2415701 0.16706842 0.34537321 4290426578 0 0 0 0
1.2415414 0.16491167 0.34558591 4290427347 0 0 0 0
1.2415127 0.16275491 0.34579861 4290427345 0 0 0 0
1.2414839 0.16059816 0.34601134 4290426831 0 0 0 0
1.2414553 0.15844139 0.34622404 4290426839 0 0 0 0
1.2414266 0.15628463 0.34643677 4290426591 0 0 0 0
1.2413979 0.15412787 0.34664947 4290426585 0 0 0 0
1.2413691 0.15197112 0.34686217 4290426835 0 0 0 0
1.2413404 0.14981435 0.3470749 4290427089 0 0 0 0
1.2413117 0.1476576 0.3472876 4290426832 0 0 0 0
1.2412829 0.14550084 0.34750032 4290361296 0 0 0 0
1.2412542 0.14334407 0.34771302 4290229200 0 0 0 0
1.2412255 0.14118733 0.34792572 4290097613 0 0 0 0
1.2411969 0.13903056 0.34813845 4289899723 0 0 0 0
1.2411681 0.1368738 0.34835115 4289701827 0 0 0 0
1.2417527 0.13481326 0.35253662 4289636539 0 0 0 0
1.2411107 0.13256028 0.34877658 4289571011 0 0 0 0
1.241082 0.13040353 0.34898928 4289374155 0 0 0 0
1.2416669 0.12836573 0.35317251 4289178574 0 0 0 0
1.2416383 0.12621655 0.35338446 4289244369 0 0 0 0
1.2409958 0.12393324 0.34962741 4289244627 0 0 0 0
1.240967 0.12177648 0.34984013 4289179349 0 0 0 0
1.2409383 0.11961972 0.35005283 4289048790 0 0 0 0
1.2409097 0.11746296 0.35026556 4289179351 0 0 0 0
1.240881 0.11530621 0.35047826 4289310165 0 0 0 0
1.2408522 0.11314945 0.35069096 4289375699 0 0 0 0
1.2408235 0.11099268 0.35090369 4289441239 0 0 0 0
1.2407948 0.10883593 0.35111639 4289375708 0 0 0 0
1.240766 0.10667917 0.35132909 4289375956 0 0 0 0
1.2407373 0.10452241 0.35154182 4289375948 0 0 0 0
1.2407086 0.10236565 0.35175452 4289310416 0 0 0 0
1.2412949 0.10042641 0.355928 4289375956 0 0 0 0
1.2406512 0.098052129 0.35217994 4289375701 0 0 0 0
1.2412376 0.096128054 0.35635194 4289375958 0 0 0 0
1.241209 0.093978874 0.3565639 4289311186 0 0 0 0
1.2411804 0.091829695 0.35677588 4289310671 0 0 0 0
1.2405363 0.089425094 0.3530308 4289245392 0 0 0 0
1.2411232 0.087531343 0.35719979 4289442001 0 0 0 0
1.2410946 0.085382164 0.35741177 4289573330 0 0 0 0
1.241066 0.083232984 0.35762373 4289507539 0 0 0 0
1.2404214 0.08079806 0.35388163 4289375957 0 0 0 0
1.2403928 0.078641295 0.35409433 4289441495 0 0 0 0
1.2409801 0.076785445 0.35825962 4289507029 0 0 0 0
1.2409514 0.074636273 0.35847157 4289441235 0 0 0 0
1.2409228 0.072487094 0.35868353 4289376468 0 0 0 0
1.2408942 0.070337914 0.35889551 4289310934 0 0 0 0
1.2402492 0.067857504 0.35515788 4289310680 0 0 0 0
1.2402204 0.06570074 0.35537061 4289376218 0 0 0 0
1.2408084 0.063890375 0.3595314 4289442008 0 0 0 0
1.2395462 0.061033241 0.35184857 4289507287 0 0 0 0
1.2401344 0.059230465 0.35600874 4289572824 0 0 0 0
1.2394886 0.056704558 0.35227549 4289507033 0 0 0 0
1.2394598 0.054540221 0.35248896 4289507030 0 0 0 0
1.2394309 0.052375879 0.35270241 4289375955 0 0 0 0
1.2394022 0.050211538 0.35291588 4289245393 0 0 0 0
1.2387559 0.047647741 0.34918648 4289375439 0 0 0 0
1.2387271 0.045475818 0.3494007 4289505742 0 0 0 0
1.2386981 0.043303899 0.34961489 4289703117 0 0 0 0
1.2386692 0.041131977 0.34982911 4289900240 0 0 0 0
1.2380224 0.038530264 0.34610334 4290162899 0 0 0 0
1.2379935 0.036350761 0.3463183 4290494161 0 0 0 0
1.2385825 0.034616213 0.35047174 4290625231 0 0 0 0
1.2385535 0.032444295 0.35068592 4290756307 0 0 0 0
1.2385246 0.030272372 0.35090014 4290821847 0 0 0 0
1.2384957 0.028100451 0.35111433 4290887639 0 0 0 0
1.2384667 0.025928529 0.35132855 4290887640 0 0 0 0
1.2378193 0.023273747 0.34760803 4290887896 0 0 0 0
1.2384089 0.021584686 0.35175696 4290887641 0 0 0 0
1.2377613 0.018914746 0.34803793 4290887640 0 0 0 0
1.2377323 0.016735241 0.34825289 4290953431 0 0 0 0
1.2377033 0.014555737 0.34846783 4290953688 0 0 0 0
1.2376742 0.012376238 0.34868279 4290953689 0 0 0 0
1.2376453 0.010196737 0.34889776 4290953688 0 0 0 0
1.2376162 0.0080172336 0.34911269 4291018967 0 0 0 0
1.2375872 0.0058377297 0.34932765 4291150296 0 0 0 0
1.2375581 0.0036582295 0.34954262 4291018970 0 0 0 0
1.2370646 0.0010597463 0.34681225 4290952663 0 0 0 0
1.2364159 -0.0016916966 0.34310126 4290952916 0 0 0 0
1.235767 -0.0044582807 0.33939189 4290953176 0 0 0 0
1.2357377 -0.0066586309 0.33960888 4291018716 0 0 0 0
1.2357084 -0.0088589769 0.3398259 4291084256 0 0 0 0
1.235679 -0.011059327 0.34004292 4291018468 0 0 0 0
1.2356498 -0.013259677 0.34025991 4290952924 0 0 0 0
1.2356205 -0.015460026 0.34047693 4291018452 0 0 0 0
1.2355912 -0.017660376 0.34069395 4291084248 0 0 0 0
1.2355618 -0.019860726 0.34091094 4290887644 0 0 0 0
1.234912 -0.022695558 0.33720818 4290756571 0 0 0 0
1.2342621 -0.02554553 0.33350703 4290887642 0 0 0 0
1.2342325 -0.02776104 0.33372551 4290953175 0 0 0 0
1.2348238 -0.029319344 0.33786145 4290953173 0 0 0 0
1.2341735 -0.032192066 0.33416253 4290953426 0 0 0 0
1.2341441 -0.034407571 0.33438104 4290887376 0 0 0 0
1.2334934 -0.037303057 0.33068424 4290886357 0 0 0 0
1.2334639 -0.039526142 0.3309035 4290886362 0 0 0 0
1.2334342 -0.041749235 0.33112276 4290952153 0 0 0 0
1.2334046 -0.043972328 0.33134201 4290886617 0 0 0 0
1.2327535 -0.046905685 0.32764909 4290821079 0 0 0 0
1.2327238 -0.049136363 0.32786909 4290820821 0 0 0 0
1.2326941 -0.051367033 0.32808909 4290820047 0 0 0 0
1.2320426 -0.054330744 0.32439902 4290754761 0 0 0 0
1.2320127 -0.056568999 0.32461977 4290755279 0 0 0 0
1.2319829 -0.05880725 0.32484052 4290755541 0 0 0 0
1.2319531 -0.061045505 0.32506126 4290756053 0 0 0 0
1.2325456 -0.062520407 0.32918909 4290690518 0 0 0 0
1.2325159 -0.064751066 0.32940906 4290690515 0 0 0 0
1.2324862 -0.066981748 0.32962906 4290690001 0 0 0 0
1.2312114 -0.070784599 0.32203954 4290755282 0 0 0 0
1.2311816 -0.073030435 0.32226104 4290624212 0 0 0 0
1.230529 -0.076077513 0.31857932 4290558676 0 0 0 0
1.2298762 -0.079139762 0.31489897 4290558420 0 0 0 0
1.229846 -0.08140076 0.31512198 4290623697 0 0 0 0
1.2310619 -0.082013763 0.32314703 4290623694 0 0 0 0
1.231032 -0.084259607 0.32336852 4290623693 0 0 0 0
1.230379 -0.087344587 0.31969053 4290623436 0 0 0 0
1.2303489 -0.089597993 0.31991279 4290557641 0 0 0 0
1.2296954 -0.092705749 0.31623691 4290622918 0 0 0 0
1.2276388 -0.097767912 0.30379373 4290622922 0 0 0 0
1.2276084 -0.10005354 0.30401915 4290557647 0 0 0 0
1.227578 -0.10233918 0.30424458 4290491599 0 0 0 0
1.2275475 -0.10462482 0.30447 4290557135 0 0 0 0
1.2268932 -0.10780265 0.30080116 4290688205 0 0 0 0
1.2262386 -0.11099569 0.29713371 4290556875 0 0 0 0
1.2254279 -0.11443071 0.29249465 4290425807 0 0 0 0
1.2253971 -0.11674098 0.29272249 4290360019 0 0 0 0
1.2247419 -0.11997379 0.2890591 4290360017 0 0 0 0
1.2247111 -0.12229163 0.28928769 4290425552 0 0 0 0
1.2240556 -0.12554722 0.28562641 4290491344 0 0 0 0
1.2240248 -0.12787263 0.28585577 4290425808 0 0 0 0
1.2225881 -0.13234203 0.27733648 4290360781 0 0 0 0
1.2225569 -0.1346845 0.27756751 4290294218 0 0 0 0
1.2225257 -0.13702701 0.27779853 4290294219 0 0 0 0
1.2224945 -0.13936949 0.27802956 4290162892 0 0 0 0
1.2218382 -0.14269516 0.27437532 4290097356 0 0 0 0
1.2218069 -0.14504524 0.27460709 4290162636 0 0 0 0
1.2217757 -0.1473953 0.27483886 4290162375 0 0 0 0
1.2217443 -0.14974539 0.27507064 4290162114 0 0 0 0
1.2209311 -0.15336233 0.27044949 4290162114 0 0 0 0
1.219492 -0.15801936 0.26194859 4290030786 0 0 0 0
1.2186781 -0.16168183 0.25733194 4289965764 0 0 0 0
1.2180204 -0.16510414 0.25368723 4289965511 0 0 0 0
1.2172061 -0.16880259 0.24907413 4289964740 0 0 0 0
1.2171742 -0.17120574 0.24931115 4289965506 0 0 0 0
1.2171422 -0.17360888 0.24954815 4290031044 0 0 0 0
1.2164838 -0.1770786 0.24590801 4290096582 0 0 0 0
1.2156688 -0.18083203 0.24130033 4290162120 0 0 0 0
1.2156366 -0.18325222 0.24153902 4290294219 0 0 0 0
1.2148212 -0.18703406 0.23693416 4290360010 0 0 0 0
1.2140055 -0.19083486 0.23233114 4290359753 0 0 0 0
1.2125628 -0.19575909 0.2238567 4290292420 0 0 0 0
1.2117466 -0.19960541 0.21925807 4290355647 0 0 0 0
1.21093 -0.20347065 0.21466143 4290362846 0 0 0 0
1.210897 -0.2059458 0.21490555 4292607742 0 0 0 0
1.2108641 -0.20842095 0.21514966 4294901502 0 0 0 0
1.210831 -0.2108961 0.21539377 4294901502 0 0 0 0
1.2115824 -0.21193381 0.22047396 4294901502 0 0 0 0
1.2115495 -0.21439949 0.22071715 4294901502 0 0 0 0
1.2107322 -0.21832158 0.2161261 4294901502 0 0 0 0
1.2106993 -0.22079675 0.21637021 4294901502 0 0 0 0
1.2106663 -0.22327188 0.21661432 4294901502 0 0 0 0
1.2106334 -0.22574705 0.21685845 4294901502 0 0 0 0
1.2106004 -0.22822221 0.21710256 4294901502 0 0 0 0
1.2105675 -0.23069738 0.21734667 4294374654 0 0 0 0
1.2314659 0.40821919 0.2500923 4288049291 0 0 0 0
1.2314354 0.40592596 0.25031847 4289178036 0 0 0 0
1.2314049 0.40363273 0.25054464 4290232286 0 0 0 0
1.2307652 0.40213042 0.24671106 4291280857 0 0 0 0
1.2313439 0.3990463 0.25099698 4291215316 0 0 0 0
1.2313132 0.3967531 0.25122315 4291149523 0 0 0 0
1.2312827 0.39445987 0.25144932 4291149778 0 0 0 0
1.2312522 0.3921667 0.25167549 4291215057 0 0 0 0
1.2312217 0.38987345 0.25190166 4291149521 0 0 0 0
1.2305814 0.38832569 0.24807256 4291084240 0 0 0 0
1.2311606 0.38528702 0.252354 4291085007 0 0 0 0
1.2311301 0.38299379 0.25258017 4291149780 0 0 0 0
1.2310996 0.38070059 0.25280634 4291018969 0 0 0 0
1.231069 0.37840736 0.25303251 4290887384 0 0 0 0
1.2310385 0.37611419 0.25325868 4290887127 0 0 0 0
1.2310079 0.37382093 0.25348485 4290887391 0 0 0 0
1.2309774 0.37152776 0.25371101 4291741415 0 0 0 0
1.2309469 0.3692345 0.25393718 4292661216 0 0 0 0
1.2309164 0.3669413 0.25416335 4291409369 0 0 0 0
1.2314966 0.36397851 0.25843719 4290163155 0 0 0 0
1.232077 0.36103085 0.26270965 4290163149 0 0 0 0
1.2328103 0.35793471 0.26799208 4290227914 0 0 0 0
1.2333912 0.35501927 0.27226126 4290161864 0 0 0 0
1.233361 0.35275829 0.27248424 4290162886 0 0 0 0
1.233331 0.35049728 0.27270725 4290097349 0 0 0 0
1.2339122 0.3476122 0.27697355 4290097095 0 0 0 0
1.2344936 0.34474227 0.2812382 4290228170 0 0 0 0
1.2344637 0.34249642 0.28145972 4290358987 0 0 0 0
1.2350454 0.3396492 0.28572214 4290097099 0 0 0 0
1.2350156 0.33741096 0.28594288 4289900487 0 0 0 0
1.2349858 0.33517271 0.28616363 4290032067 0 0 0 0
1.235568 0.3323558 0.29042321 4290162628 0 0 0 0
1.2361504 0.32955411 0.29468116 4290162373 0 0 0 0
1.2361208 0.32733101 0.29490042 4290162374 0 0 0 0
1.2354789 0.32566381 0.29108322 4290162374 0 0 0 0
1.2360616 0.3228848 0.2953389 4290162889 0 0 0 0
1.2354195 0.32120246 0.29152322 4290228684 0 0 0 0
1.2360023 0.31843862 0.29577741 4290294473 0 0 0 0
1.2353601 0.31674111 0.29196322 4290294727 0 0 0 0
1.2359432 0.31399247 0.29621592 4290294469 0 0 0 0
1.2359135 0.31176937 0.29643518 4290163396 0 0 0 0
1.235884 0.30954626 0.29665443 4290097609 0 0 0 0
1.2358544 0.30732316 0.29687369 4290163149 0 0 0 0
1.2358248 0.30510011 0.29709291 4290228941 0 0 0 0
1.2364085 0.30239692 0.3013413 4290098380 0 0 0 0
1.2363789 0.30018139 0.30155978 4290032586 0 0 0 0
1.2363495 0.29796588 0.30177829 4290163655 0 0 0 0
1.2363199 0.29575038 0.3019968 4290360266 0 0 0 0
1.2362905 0.29353487 0.30221531 4290491340 0 0 0 0
1.2368747 0.29087719 0.30645904 4290622412 0 0 0 0
1.2368453 0.28866926 0.30667681 4290491595 0 0 0 0
1.2368159 0.28646132 0.30689457 4290426318 0 0 0 0
1.2367865 0.28425339 0.30711231 4290426321 0 0 0 0
1.2367572 0.28204545 0.30733007 4290491859 0 0 0 0
1.237342 0.27943325 0.31156945 4290623189 0 0 0 0
1.2379271 0.27683622 0.31580722 4290820054 0 0 0 0
1.2378979 0.27464345 0.31602347 4290755288 0 0 0 0
1.2384833 0.27206916 0.32025912 4290689489 0 0 0 0
1.2384542 0.26988396 0.32047462 4290623947 0 0 0 0
1.2384251 0.26769879 0.32069016 4290558157 0 0 0 0
1.2383959 0.2655136 0.32090566 4290557904 0 0 0 0
1.2383668 0.2633284 0.32112119 4290558163 0 0 0 0
1.2383378 0.26114321 0.32133669 4290624471 0 0 0 0
1.2383087 0.25895801 0.32155222 4290755030 0 0 0 0
1.2382796 0.25677285 0.32176772 4290689494 0 0 0 0
1.2382505 0.25458765 0.32198322 4290623701 0 0 0 0
1.2382214 0.25240245 0.32219875 4290689237 0 0 0 0
1.2381923 0.25021729 0.32241425 4290754770 0 0 0 0
1.2375475 0.24833024 0.31861863 4290820048 0 0 0 0
1.2375183 0.24613747 0.31883487 4290885331 0 0 0 0
1.2381051 0.2436617 0.32306081 4290820567 0 0 0 0
1.238076 0.24147652 0.32327631 4290754775 0 0 0 0
1.2380469 0.23929134 0.32349184 4290754775 0 0 0 0
1.2384799 0.23691098 0.32671276 4290754774 0 0 0 0
1.2379887 0.23492096 0.32392287 4290885846 0 0 0 0
1.2384218 0.23255198 0.32714266 4291016921 0 0 0 0
1.2383928 0.23037247 0.32735762 4290820573 0 0 0 0
1.2389804 0.22796306 0.331577 4290689497 0 0 0 0
1.2389514 0.22579114 0.33179119 4290689749 0 0 0 0
1.2389226 0.22361921 0.33200541 4290689748 0 0 0 0
1.2388936 0.2214473 0.3322196 4290624211 0 0 0 0
1.2388648 0.21927537 0.33243382 4290558420 0 0 0 0
1.2388358 0.21710345 0.33264804 4290427094 0 0 0 0
1.2388068 0.21493153 0.33286223 4290361045 0 0 0 0
1.238778 0.21275961 0.33307645 4290427349 0 0 0 0
1.238749 0.2105877 0.33329064 4290557908 0 0 0 0
1.2381027 0.20857745 0.32950714 4290557651 0 0 0 0
1.2393088 0.20608976 0.33771589 4290557650 0 0 0 0
1.2386622 0.20407192 0.33393326 4290558161 0 0 0 0
1.2392511 0.20176107 0.33814281 4290557902 0 0 0 0
1.2392224 0.19959673 0.33835626 4290492364 0 0 0 0
1.2398115 0.19730861 0.34256366 4290492367 0 0 0 0
1.2397828 0.19515187 0.34277639 4290558418 0 0 0 0
1.2397541 0.19299509 0.34298909 4290689232 0 0 0 0
1.2397254 0.19083834 0.34320182 4290623695 0 0 0 0
1.2403151 0.18858814 0.34740537 4290558162 0 0 0 0
1.2402865 0.18643895 0.34761733 4290558422 0 0 0 0
1.2396393 0.18436806 0.34383994 4290558166 0 0 0 0
1.2396106 0.18221129 0.34405264 4290558166 0 0 0 0
1.2395818 0.18005453 0.34426537 4290557908 0 0 0 0
1.2395531 0.17789777 0.34447807 4290557907 0 0 0 0
1.2395244 0.17574102 0.34469077 4290623443 0 0 0 0
1.2394956 0.17358427 0.3449035 4290689236 0 0 0 0
1.2394669 0.1714275 0.3451162 4290754515 0 0 0 0
1.2394383 0.16927074 0.3453289 4290623186 0 0 0 0
1.2387902 0.16713163 0.34155813 4290492116 0 0 0 0
1.2393808 0.16495723 0.34575433 4290427606 0 0 0 0
1.2393521 0.16280046 0.34596705 4290427347 0 0 0 0
1.2393234 0.16064371 0.34617975 4290426832 0 0 0 0
1.2392946 0.15848695 0.34639245 4290427092 0 0 0 0
1.2392659 0.15633018 0.34660518 4290427352 0 0 0 0
1.2392372 0.15417343 0.34681788 4290492373 0 0 0 0
1.2392085 0.15201667 0.34703061 4290492627 0 0 0 0
1.2391798 0.14985991 0.34724331 4290492626 0 0 0 0
1.2391511 0.14770316 0.34745601 4290492369 0 0 0 0
1.2391224 0.14554639 0.34766874 4290492113 0 0 0 0
1.2390937 0.14338964 0.34788144 4290361041 0 0 0 0
1.2390649 0.14123288 0.34809414 4290295246 0 0 0 0
1.2390362 0.13907611 0.34830686 4290294986 0 0 0 0
1.2390075 0.13691935 0.34851956 4290358981 0 0 0 0
1.2389787 0.1347626 0.34873229 4290095551 0 0 0 0
1.23895 0.13260584 0.34894499 4289833154 0 0 0 0
1.2389213 0.13044909 0.34915769 4289570758 0 0 0 0
1.2388927 0.12829232 0.34937042 4289308874 0 0 0 0
1.2388639 0.12613556 0.34958312 4289243855 0 0 0 0
1.2388352 0.12397879 0.34979585 4289244369 0 0 0 0
1.2388065 0.12182204 0.35000855 4289179092 0 0 0 0
1.2387778 0.11966527 0.35022125 4289178838 0 0 0 0
1.238749 0.11750852 0.35043398 4289244377 0 0 0 0
1.2387203 0.11535176 0.35064667 4289375702 0 0 0 0
1.2386916 0.113195 0.35085937 4289441491 0 0 0 0
1.2386628 0.11103825 0.3510721 4289506773 0 0 0 0
1.2386342 0.10888148 0.3512848 4289441751 0 0 0 0
1.2392277 0.10691934 0.35545996 4289375954 0 0 0 0
1.239199 0.10477016 0.35567191 4289375950 0 0 0 0
1.2391704 0.10262098 0.35588387 4289375954 0 0 0 0
1.2391418 0.1004718 0.35609585 4289441750 0 0 0 0
1.2384906 0.098097689 0.35234836 4289506772 0 0 0 0
1.2390846 0.09617345 0.35651976 4289441491 0 0 0 0
1.239056 0.094024271 0.35673174 4289375951 0 0 0 0
1.2384044 0.091627412 0.35298648 4289376204 0 0 0 0
1.2383758 0.089470647 0.35319921 4289376209 0 0 0 0
1.2383471 0.08731389 0.35341191 4289442262 0 0 0 0
1.2383183 0.085157134 0.35362461 4289507540 0 0 0 0
1.2382896 0.083000369 0.35383734 4289442003 0 0 0 0
1.2382609 0.080843613 0.35405004 4289376468 0 0 0 0
1.2382321 0.078686856 0.35426277 4289376469 0 0 0 0
1.2388271 0.076830842 0.35842744 4289441491 0 0 0 0
1.2387985 0.074681662 0.35863939 4289375698 0 0 0 0
1.2387699 0.072532482 0.35885137 4289376211 0 0 0 0
1.2387413 0.070383303 0.35906333 4289376725 0 0 0 0
1.2380886 0.067903057 0.35532632 4289441496 0 0 0 0
1.2380599 0.0657463 0.35553902 4289441756 0 0 0 0
1.2374068 0.063243292 0.35180414 4289441752 0 0 0 0
1.237378 0.061078954 0.35201758 4289507284 0 0 0 0
1.2373493 0.058914617 0.35223106 4289638099 0 0 0 0
1.2373204 0.056750275 0.3524445 4289638099 0 0 0 0
1.2372916 0.054585934 0.35265797 4289638097 0 0 0 0
1.2372627 0.052421592 0.35287142 4289638351 0 0 0 0
1.237234 0.050257254 0.35308489 4289638348 0 0 0 0
1.2365801 0.047693614 0.34935609 4289703881 0 0 0 0
1.2365513 0.045521695 0.3495703 4289769166 0 0 0 0
1.2365223 0.043349773 0.34978449 4289965522 0 0 0 0
1.2364933 0.041177854 0.34999871 4290162900 0 0 0 0
1.2358391 0.038576297 0.34627354 4290426838 0 0 0 0
1.23581 0.036396794 0.34648851 4290690260 0 0 0 0
1.2364067 0.03466209 0.35064134 4290821843 0 0 0 0
1.2363777 0.032490168 0.35085553 4290952917 0 0 0 0
1.2363489 0.030318247 0.35106975 4290887383 0 0 0 0
1.2363199 0.028146327 0.35128394 4290887639 0 0 0 0
1.2362909 0.025974404 0.35149816 4290887640 0 0 0 0
1.2362621 0.023802483 0.35171235 4290953432 0 0 0 0
1.2362331 0.021630561 0.35192657 4290888152 0 0 0 0
1.2355779 0.01896078 0.34820813 4290887638 0 0 0 0
1.2355489 0.016781276 0.34842306 4290887893 0 0 0 0
1.2355199 0.014601773 0.34863803 4290887895 0 0 0 0
1.2354909 0.012422273 0.34885299 4290888153 0 0 0 0
1.2354618 0.010242772 0.34906793 4290887894 0 0 0 0
1.2354329 0.0080632688 0.34928289 4291018963 0 0 0 0
1.2354038 0.0058837645 0.34949785 4291150037 0 0 0 0
1.2353748 0.0037042645 0.34971279 4291084503 0 0 0 0
1.2348754 0.0011059012 0.3469829 4291018710 0 0 0 0
1.2348464 -0.0010792885 0.3471984 4290953174 0 0 0 0
1.23419 -0.0038381475 0.34348875 4290953177 0 0 0 0
1.2341608 -0.0060309172 0.34370503 4291018972 0 0 0 0
1.2341316 -0.0082236836 0.34392127 4291084254 0 0 0 0
1.2334749 -0.011012851 0.34021473 4291018721 0 0 0 0
1.2334455 -0.013213201 0.34043175 4290952924 0 0 0 0
1.2334162 -0.015413552 0.34064874 4290952920 0 0 0 0
1.2333869 -0.017613901 0.34086576 4290952922 0 0 0 0
1.2333577 -0.019814251 0.34108278 4290887900 0 0 0 0
1.2327002 -0.022648921 0.33738059 4290887386 0 0 0 0
1.2326708 -0.024856849 0.33759835 4290887384 0 0 0 0
1.2320131 -0.027714243 0.33389854 4290887639 0 0 0 0
1.2319837 -0.029929761 0.33411703 4290887637 0 0 0 0
1.2319541 -0.032145273 0.33433554 4290953428 0 0 0 0
1.2312959 -0.035033006 0.33063859 4290887380 0 0 0 0
1.2312664 -0.037256099 0.33085784 4290886359 0 0 0 0
1.2312368 -0.039479185 0.3310771 4290951899 0 0 0 0
1.2312073 -0.041702282 0.33129635 4291017436 0 0 0 0
1.2311776 -0.043925375 0.33151561 4290886621 0 0 0 0
1.2305189 -0.046858571 0.32782325 4290821082 0 0 0 0
1.2304891 -0.049089249 0.32804325 4290821079 0 0 0 0
1.2304595 -0.051319916 0.32826325 4290820050 0 0 0 0
1.2304298 -0.053550594 0.32848325 4290820558 0 0 0 0
1.2297705 -0.056521721 0.32479453 4290820818 0 0 0 0
1.2297407 -0.058759976 0.32501531 4290821079 0 0 0 0
1.2297109 -0.060998227 0.32523605 4290886614 0 0 0 0
1.2296811 -0.063236482 0.3254568 4290821077 0 0 0 0
1.2296513 -0.065474734 0.32567754 4290755539 0 0 0 0
1.2289915 -0.068491325 0.32199341 4290690258 0 0 0 0
1.2283316 -0.071523078 0.3183108 4290690003 0 0 0 0
1.2283015 -0.073776491 0.31853303 4290559188 0 0 0 0
1.2276412 -0.076831006 0.31485254 4290493141 0 0 0 0
1.2276111 -0.079092003 0.31507555 4290558679 0 0 0 0
1.2282115 -0.080536745 0.31919977 4290623955 0 0 0 0
1.2281815 -0.082790166 0.31942201 4290623694 0 0 0 0
1.2275208 -0.085874997 0.31574452 4290688973 0 0 0 0
1.2274907 -0.088135995 0.3159675 4290688972 0 0 0 0
1.2268296 -0.091243558 0.31229234 4290688460 0 0 0 0
1.2260107 -0.094579831 0.30764431 4290688460 0 0 0 0
1.2247181 -0.098581359 0.30007556 4290688464 0 0 0 0
1.2246876 -0.10087459 0.30030173 4290623188 0 0 0 0
1.2252883 -0.1022909 0.30442306 4290623185 0 0 0 0
1.2246264 -0.105461 0.30075407 4290689231 0 0 0 0
1.2245959 -0.10775422 0.30098024 4290819788 0 0 0 0
1.2239337 -0.11094709 0.29731339 4290623178 0 0 0 0
1.2231134 -0.11438192 0.29267505 4290426318 0 0 0 0
1.2224509 -0.11760698 0.28901151 4290359763 0 0 0 0
1.22242 -0.11992484 0.28924009 4290359761 0 0 0 0
1.2223891 -0.12224267 0.28946871 4290490832 0 0 0 0
1.2223582 -0.12456053 0.28969729 4290687438 0 0 0 0
1.2216952 -0.12782352 0.28603736 4290556621 0 0 0 0
1.2208737 -0.13133985 0.28140706 4290425546 0 0 0 0
1.2208427 -0.13367476 0.28163734 4290360263 0 0 0 0
1.2201791 -0.13697754 0.27798146 4290293961 0 0 0 0
1.2201478 -0.13932 0.27821246 4290228427 0 0 0 0
1.2201166 -0.14166251 0.27844352 4290228429 0 0 0 0
1.2194526 -0.1449956 0.27479059 4290228176 0 0 0 0
1.2194214 -0.14734566 0.27502239 4290227911 0 0 0 0
1.21939 -0.14969574 0.27525416 4290227647 0 0 0 0
1.2185674 -0.15331249 0.27063376 4290292928 0 0 0 0
1.2185359 -0.15567204 0.27086645 4290096066 0 0 0 0
1.2162877 -0.16163144 0.25751826 4289965507 0 0 0 0
1.2156225 -0.16505358 0.25387415 4289965509 0 0 0 0
1.2155907 -0.16744724 0.25411022 4289965248 0 0 0 0
1.2147667 -0.17115498 0.2494988 4289965243 0 0 0 0
1.2147348 -0.17355812 0.24973582 4290031041 0 0 0 0
1.2140689 -0.17702769 0.24609625 4290096839 0 0 0 0
1.2140368 -0.17943841 0.24633402 4290228169 0 0 0 0
1.2132121 -0.1832011 0.24172801 4290294220 0 0 0 0
1.2123872 -0.18698274 0.23712388 4290425287 0 0 0 0
1.210135 -0.19325101 0.22380626 4290360003 0 0 0 0
1.2093092 -0.19708766 0.21920744 4290293443 0 0 0 0
1.2092764 -0.19955333 0.21945061 4290422212 0 0 0 0
1.2084504 -0.20341837 0.2148547 4290559969 0 0 0 0
1.2084174 -0.20589352 0.21509883 4292738814 0 0 0 0
1.2083845 -0.20836867 0.21534294 4294901502 0 0 0 0
1.2083515 -0.21084383 0.21558705 4294901502 0 0 0 0
1.2091123 -0.21188173 0.2206665 4294901502 0 0 0 0
1.2090795 -0.21434741 0.22090968 4294901502 0 0 0 0
1.2082527 -0.2182693 0.21631938 4294901502 0 0 0 0
1.2082198 -0.22074446 0.21656349 4294901502 0 0 0 0
1.2081867 -0.2232196 0.2168076 4294901502 0 0 0 0
1.2081538 -0.22569476 0.21705171 4294901502 0 0 0 0
1.2089154 -0.22667582 0.22212557 4294901502 0 0 0 0
1.2277509 0.4077884 0.24136117 4289112756 0 0 0 0
1.2277201 0.40547815 0.24158901 4290166239 0 0 0 0
1.2284603 0.40217903 0.24689072 4291280600 0 0 0 0
1.2284297 0.39987823 0.24711764 4291215057 0 0 0 0
1.2290159 0.39680153 0.25140223 4291149521 0 0 0 0
1.2289854 0.39450833 0.2516284 4291149522 0 0 0 0
1.2289549 0.39221513 0.25185457 4291149521 0 0 0 0
1.2289244 0.38992187 0.25208074 4291083984 0 0 0 0
1.2288939 0.3876287 0.25230691 4291084494 0 0 0 0
1.2288634 0.38533545 0.25253308 4291084237 0 0 0 0
1.2288327 0.38304225 0.25275925 4291084242 0 0 0 0
1.2288022 0.38074902 0.25298542 4291018455 0 0 0 0
1.2287717 0.37845582 0.25321159 4290952664 0 0 0 0
1.2287412 0.37616262 0.25343773 4290952153 0 0 0 0
1.2287107 0.37386939 0.2536639 4290886358 0 0 0 0
1.2286801 0.37157619 0.25389007 4291740372 0 0 0 0
1.2286496 0.36928293 0.25411624 4292530646 0 0 0 0
1.2292373 0.36631241 0.25839025 4291345368 0 0 0 0
1.2292068 0.36402678 0.25861567 4290162900 0 0 0 0
1.2297949 0.36107895 0.26288754 4290228688 0 0 0 0
1.2297646 0.35880089 0.26311222 4290294987 0 0 0 0
1.2311261 0.35506704 0.27243781 4290229191 0 0 0 0
1.2304773 0.3534455 0.26861671 4290163398 0 0 0 0
1.2304471 0.35117692 0.26884046 4290031557 0 0 0 0
1.2316548 0.3476598 0.2771495 4289967560 0 0 0 0
1.2322438 0.34478971 0.28141358 4290097100 0 0 0 0
1.2322139 0.34254384 0.28163508 4290227918 0 0 0 0
1.2328032 0.3396965 0.28589693 4290096848 0 0 0 0
1.2327734 0.33745825 0.28611767 4289966283 0 0 0 0
1.2327436 0.33521998 0.28633842 4290031815 0 0 0 0
1.2327138 0.33298174 0.28655916 4290162886 0 0 0 0
1.2333037 0.33017224 0.29081738 4290162886 0 0 0 0
1.2338938 0.32737797 0.29507402 4290162887 0 0 0 0
1.2332443 0.32571092 0.29125738 4290162376 0 0 0 0
1.2332146 0.32348025 0.29147738 4290162637 0 0 0 0
1.2331848 0.32124957 0.29169738 4290228690 0 0 0 0
1.2337753 0.31848559 0.29595101 4290294734 0 0 0 0
1.2337457 0.31626251 0.29617026 4290294475 0 0 0 0
1.2330958 0.31455752 0.29235739 4290359755 0 0 0 0
1.2330661 0.31232685 0.29257739 4290228684 0 0 0 0
1.2336569 0.3095932 0.29682803 4290163149 0 0 0 0
1.2336273 0.30737013 0.29704729 4290163151 0 0 0 0
1.2335978 0.30514708 0.29726651 4290228942 0 0 0 0
1.234189 0.30244371 0.3015143 4290228941 0 0 0 0
1.2341595 0.30022818 0.30173278 4290294728 0 0 0 0
1.23413 0.29801267 0.30195129 4290294724 0 0 0 0
1.2341005 0.29579717 0.3021698 4290360776 0 0 0 0
1.234071 0.29358166 0.30238831 4290426061 0 0 0 0
1.2340415 0.29136613 0.30260682 4290491341 0 0 0 0
1.234012 0.28915063 0.30282533 4290426061 0 0 0 0
1.2339824 0.28693512 0.30304381 4290426318 0 0 0 0
1.233953 0.28471962 0.30326232 4290426320 0 0 0 0
1.2339234 0.28250411 0.30348083 4290426323 0 0 0 0
1.2345159 0.27988416 0.30772024 4290557654 0 0 0 0
1.2351084 0.27727938 0.31195828 4290754522 0 0 0 0
1.2350792 0.27507901 0.3121753 4290623454 0 0 0 0
1.235672 0.272497 0.31641096 4290558163 0 0 0 0
1.2362651 0.26993012 0.32064527 4290557896 0 0 0 0
1.236236 0.26774493 0.32086077 4290492108 0 0 0 0
1.2362069 0.26555973 0.3210763 4290557648 0 0 0 0
1.2361778 0.26337457 0.3212918 4290557905 0 0 0 0
1.2361487 0.26118937 0.32150733 4290689235 0 0 0 0
1.2361196 0.25900418 0.32172284 4290820564 0 0 0 0
1.2360905 0.25681898 0.32193837 4290689237 0 0 0 0
1.2360615 0.25463378 0.32215387 4290558164 0 0 0 0
1.2354093 0.25276211 0.31835732 4290558163 0 0 0 0
1.2353801 0.25056931 0.31857359 4290623695 0 0 0 0
1.2353508 0.24837655 0.31878984 4290688971 0 0 0 0
1.2353216 0.24618378 0.31900612 4290754256 0 0 0 0
1.2352924 0.243991 0.31922236 4290688726 0 0 0 0
1.2352632 0.24179824 0.31943864 4290688982 0 0 0 0
1.2358577 0.2393375 0.32366246 4290688982 0 0 0 0
1.2358286 0.23715231 0.32387799 4290688982 0 0 0 0
1.2357996 0.23496711 0.32409349 4290754774 0 0 0 0
1.2362385 0.23259801 0.32731286 4290820572 0 0 0 0
1.2362094 0.23041852 0.32752782 4290689251 0 0 0 0
1.2368046 0.22800894 0.33174661 4290623709 0 0 0 0
1.2367756 0.22583702 0.3319608 4290688983 0 0 0 0
1.2361224 0.22388001 0.32817268 4290754519 0 0 0 0
1.2367178 0.22149318 0.33238921 4290688983 0 0 0 0
1.236689 0.21932125 0.33260342 4290623446 0 0 0 0
1.23666 0.21714933 0.33281761 4290623190 0 0 0 0
1.236631 0.21497741 0.33303183 4290623189 0 0 0 0
1.2366022 0.21280548 0.33324605 4290557653 0 0 0 0
1.2365732 0.21063356 0.33346024 4290557649 0 0 0 0
1.2365444 0.20846164 0.33367446 4290492110 0 0 0 0
1.2371407 0.20613548 0.3378849 4290492110 0 0 0 0
1.2364866 0.2041178 0.33410287 4290492623 0 0 0 0
1.237083 0.20180678 0.33831182 4290558156 0 0 0 0
1.2370541 0.19964245 0.33852527 4290492361 0 0 0 0
1.2370254 0.19747812 0.33873874 4290492364 0 0 0 0
1.2369965 0.19531375 0.33895218 4290557904 0 0 0 0
1.2375935 0.19304065 0.3431575 4290623694 0 0 0 0
1.2375648 0.19088389 0.34337023 4290492621 0 0 0 0
1.2375361 0.18872713 0.34358293 4290427089 0 0 0 0
1.2381334 0.18648434 0.34778515 4290492630 0 0 0 0
1.2374786 0.18441361 0.34400836 4290623446 0 0 0 0
1.2374499 0.18225685 0.34422106 4290557911 0 0 0 0
1.2374213 0.18010008 0.34443378 4290491861 0 0 0 0
1.2373925 0.17794333 0.34464648 4290558163 0 0 0 0
1.2373638 0.17578657 0.34485918 4290558424 0 0 0 0
1.2367084 0.17367037 0.34108678 4290557917 0 0 0 0
1.2373064 0.17147306 0.34528461 4290557912 0 0 0 0
1.2372776 0.16931629 0.34549734 4290492115 0 0 0 0
1.2366219 0.16717735 0.34172714 4290492374 0 0 0 0
1.2372202 0.16500278 0.34592274 4290427097 0 0 0 0
1.2371914 0.16284603 0.34613547 4290427349 0 0 0 0
1.2371628 0.16068926 0.34634817 4290427089 0 0 0 0
1.2371341 0.1585325 0.3465609 4290427601 0 0 0 0
1.2371054 0.15637574 0.34677359 4290427346 0 0 0 0
1.2370766 0.15421899 0.34698629 4290492370 0 0 0 0
1.2370479 0.15206222 0.34719902 4290426835 0 0 0 0
1.2370192 0.14990546 0.34741172 4290427091 0 0 0 0
1.2369905 0.14774871 0.34762442 4290492115 0 0 0 0
1.2369617 0.14559194 0.34783715 4290623187 0 0 0 0
1.2363049 0.1433696 0.34407517 4290426579 0 0 0 0
1.2362761 0.14120527 0.34428865 4290295502 0 0 0 0
1.2362473 0.13904092 0.34450209 4290361546 0 0 0 0
1.2368469 0.13696492 0.34868798 4290428103 0 0 0 0
1.2368182 0.13480815 0.34890071 4290230468 0 0 0 0
1.2367895 0.13265139 0.3491134 4290032834 0 0 0 0
1.2367607 0.13049464 0.34932613 4289834433 0 0 0 0
1.236732 0.12833788 0.34953883 4289636295 0 0 0 0
1.2367033 0.12618111 0.34975153 4289440462 0 0 0 0
1.2366745 0.12402435 0.34996426 4289244368 0 0 0 0
1.2366458 0.12186759 0.35017696 4289113043 0 0 0 0
1.2366172 0.11971083 0.35038966 4289047255 0 0 0 0
1.2365885 0.11755407 0.35060239 4289178587 0 0 0 0
1.2365597 0.11539731 0.35081509 4289375703 0 0 0 0
1.236531 0.11324055 0.35102782 4289506771 0 0 0 0
1.2365023 0.1110838 0.35124052 4289637843 0 0 0 0
1.2364736 0.10892703 0.35145321 4289506771 0 0 0 0
1.2364448 0.10677028 0.35166594 4289375697 0 0 0 0
1.2370461 0.10481556 0.35583973 4289375696 0 0 0 0
1.2363874 0.10245676 0.35209137 4289310420 0 0 0 0
1.2363588 0.1003 0.35230407 4289310168 0 0 0 0
1.23633 0.098143242 0.35251677 4289244628 0 0 0 0
1.2363013 0.095986478 0.3527295 4289310161 0 0 0 0
1.2362726 0.093829721 0.3529422 4289309901 0 0 0 0
1.2362438 0.091672964 0.3531549 4289310153 0 0 0 0
1.2362151 0.089516208 0.35336763 4289310418 0 0 0 0
1.2361864 0.087359443 0.35358033 4289375963 0 0 0 0
1.2361577 0.085202686 0.35379305 4289441495 0 0 0 0
1.2361289 0.08304593 0.35400575 4289375955 0 0 0 0
1.2361002 0.080889165 0.35421845 4289309907 0 0 0 0
1.2360716 0.078732409 0.35443118 4289376212 0 0 0 0
1.2366741 0.076876238 0.35859525 4289441746 0 0 0 0
1.2366455 0.074727058 0.35880724 4289441489 0 0 0 0
1.2366168 0.072577879 0.35901919 4289507027 0 0 0 0
1.2359567 0.070105374 0.35528201 4289441493 0 0 0 0
1.2352962 0.067617692 0.35154623 4289375961 0 0 0 0
1.2358992 0.065791853 0.35570744 4289375710 0 0 0 0
1.2352387 0.063289009 0.35197315 4289310167 0 0 0 0
1.2352098 0.061124671 0.35218659 4289441745 0 0 0 0
1.235181 0.05896033 0.35240006 4289638095 0 0 0 0
1.2351522 0.056795988 0.35261351 4289703630 0 0 0 0
1.2344911 0.054255255 0.34888306 4289769165 0 0 0 0
1.2344623 0.052083332 0.34909728 4289769420 0 0 0 0
1.2344333 0.04991141 0.3493115 4289769928 0 0 0 0
1.2344043 0.047739491 0.34952569 4289835204 0 0 0 0
1.2343755 0.045567568 0.34973991 4289966030 0 0 0 0
1.2343465 0.04339565 0.3499541 4290097624 0 0 0 0
1.2343177 0.041223727 0.35016832 4290294745 0 0 0 0
1.2336557 0.038622331 0.34644374 4290493146 0 0 0 0
1.2336267 0.036442831 0.34665868 4290690008 0 0 0 0
1.2342309 0.034707963 0.35081092 4290886871 0 0 0 0
1.2335687 0.032083824 0.34708861 4291018711 0 0 0 0
1.2341731 0.030364122 0.35123935 4290953175 0 0 0 0
1.2341441 0.0281922 0.35145354 4290822360 0 0 0 0
1.2341151 0.026020279 0.35166776 4290887897 0 0 0 0
1.2340863 0.023848359 0.35188195 4290953688 0 0 0 0
1.2340573 0.021676436 0.35209617 4290887895 0 0 0 0
1.2333945 0.019006815 0.3483783 4290887381 0 0 0 0
1.2333655 0.016827311 0.34859326 4290952916 0 0 0 0
1.2333364 0.014647808 0.34880823 4290953174 0 0 0 0
1.2328318 0.012077995 0.34607595 4290887129 0 0 0 0
1.2332785 0.010288808 0.34923813 4290886868 0 0 0 0
1.2332494 0.0081093032 0.34945309 4290953168 0 0 0 0
1.2327446 0.0055224323 0.34672251 4291018962 0 0 0 0
1.2327155 0.0033372426 0.34693801 4291018965 0 0 0 0
1.2326864 0.0011520564 0.34715354 4290953430 0 0 0 0
1.2326573 -0.0010331334 0.34736905 4290953176 0 0 0 0
1.2326282 -0.0032183232 0.34758458 4290887898 0 0 0 0
1.2319641 -0.005984602 0.34387624 4290953436 0 0 0 0
1.2319349 -0.008177368 0.34409252 4290953693 0 0 0 0
1.2319057 -0.010370138 0.34430876 4290887646 0 0 0 0
1.2312412 -0.013166726 0.34060356 4290887389 0 0 0 0
1.2312119 -0.015367076 0.34082058 4290887389 0 0 0 0
1.2311826 -0.017567426 0.34103757 4290887388 0 0 0 0
1.2311534 -0.019767776 0.34125459 4290887388 0 0 0 0
1.2304883 -0.022602286 0.33755299 4290887385 0 0 0 0
1.230459 -0.024810212 0.33777076 4290887383 0 0 0 0
1.2297937 -0.027667448 0.33407155 4290887638 0 0 0 0
1.2304001 -0.029226072 0.33820629 4290953174 0 0 0 0
1.2303708 -0.031434007 0.33842403 4291084503 0 0 0 0
1.2297051 -0.034313977 0.33472705 4290952920 0 0 0 0
1.2290393 -0.037209146 0.33103144 4290886618 0 0 0 0
1.2290097 -0.039432231 0.3312507 4290886364 0 0 0 0
1.2289802 -0.041655324 0.33146995 4290886367 0 0 0 0
1.2283139 -0.044580791 0.32777745 4290820834 0 0 0 0
1.2282842 -0.046811454 0.32799745 4290691037 0 0 0 0
1.2282546 -0.049042132 0.32821745 4290755033 0 0 0 0
1.2282249 -0.051272802 0.32843745 4290820310 0 0 0 0
1.2281952 -0.05350348 0.32865745 4290820563 0 0 0 0
1.2275283 -0.056474447 0.32496932 4290820822 0 0 0 0
1.2274985 -0.058712699 0.32519007 4290820570 0 0 0 0
1.2274687 -0.060950954 0.32541081 4290820567 0 0 0 0
1.2274389 -0.063189209 0.32563156 4290755284 0 0 0 0
1.2267716 -0.066198058 0.32194731 4290690004 0 0 0 0
1.2267417 -0.068443887 0.3221688 4290689748 0 0 0 0
1.2260741 -0.071475483 0.31848675 4290689748 0 0 0 0
1.2260441 -0.073728897 0.31870902 4290624212 0 0 0 0
1.2253761 -0.076783247 0.31502908 4290558935 0 0 0 0
1.2253461 -0.079044245 0.3152521 4290558683 0 0 0 0
1.2259541 -0.080489151 0.31937572 4290624213 0 0 0 0
1.225924 -0.082742572 0.31959799 4290623695 0 0 0 0
1.2252557 -0.085827239 0.31592107 4290688718 0 0 0 0
1.2252257 -0.088088237 0.31614405 4290688461 0 0 0 0
1.224557 -0.091195643 0.31246951 4290688464 0 0 0 0
1.2230899 -0.095385723 0.30392528 4290688211 0 0 0 0
1.2230594 -0.09767136 0.3041507 4290622678 0 0 0 0
1.2223902 -0.10082615 0.30048081 4290557658 0 0 0 0
1.2223597 -0.10311935 0.30070698 4290557652 0 0 0 0
1.2223291 -0.10541257 0.30093315 4290557647 0 0 0 0
1.2222986 -0.10770578 0.30115932 4290623180 0 0 0 0
1.2216288 -0.11089849 0.29749307 4290557642 0 0 0 0
1.2207991 -0.11433312 0.29285547 4290426830 0 0 0 0
1.2201289 -0.11755802 0.2891925 4290360019 0 0 0 0
1.220098 -0.11987588 0.28942108 4290294481 0 0 0 0
1.2200671 -0.12219372 0.2896497 4290425296 0 0 0 0
1.2193965 -0.12544899 0.28598961 4290556109 0 0 0 0
1.2185658 -0.12895562 0.28135911 4290424778 0 0 0 0
1.2185347 -0.13129053 0.28158939 4290359239 0 0 0 0
1.2178636 -0.13458554 0.27793333 4290293701 0 0 0 0
1.2178323 -0.13692807 0.27816436 4290228423 0 0 0 0
1.2178012 -0.13927053 0.27839538 4290293962 0 0 0 0
1.2171297 -0.14259589 0.27474234 4290293967 0 0 0 0
1.2162979 -0.14618403 0.27011988 4290228180 0 0 0 0
1.2162664 -0.14854357 0.2703526 4290228168 0 0 0 0
1.216235 -0.15090312 0.2705853 4290161852 0 0 0 0
1.2155628 -0.15427586 0.26693681 4290161343 0 0 0 0
1.2139292 -0.15919495 0.25746927 4290096323 0 0 0 0
1.2138975 -0.16158102 0.25770459 4289965507 0 0 0 0
1.2132246 -0.16500302 0.25406107 4289965763 0 0 0 0
1.2131927 -0.16739669 0.25429714 4289900732 0 0 0 0
1.2123593 -0.17110422 0.24968646 4289965493 0 0 0 0
1.2123274 -0.17350736 0.24992347 4290096574 0 0 0 0
1.2122953 -0.17591049 0.25016049 4290162632 0 0 0 0
1.2116218 -0.17938749 0.24652226 4290228683 0 0 0 0
1.2115897 -0.1817982 0.24676001 4290294222 0 0 0 0
1.2115576 -0.18420893 0.24699777 4290425285 0 0 0 0
1.2115254 -0.18661965 0.24723554 4290294461 0 0 0 0
1.2068392 -0.19703558 0.21939997 4290163395 0 0 0 0
1.2068063 -0.19950125 0.21964316 4290420937 0 0 0 0
1.2059709 -0.20336609 0.21504799 4290691555 0 0 0 0
1.2059379 -0.20584124 0.2152921 4292804350 0 0 0 0
1.205905 -0.2083164 0.21553621 4294901502 0 0 0 0
1.2058719 -0.21079154 0.21578033 4294901502 0 0 0 0
1.2066423 -0.21182965 0.22085905 4294901502 0 0 0 0
1.2066094 -0.21429533 0.22110222 4294901502 0 0 0 0
1.2065766 -0.21676104 0.22134541 4294901502 0 0 0 0
1.2057401 -0.22069219 0.21675678 4294901502 0 0 0 0
1.2057072 -0.22316732 0.21700089 4294901502 0 0 0 0
1.2056743 -0.22564249 0.217245 4294901502 0 0 0 0
1.2056413 -0.22811766 0.21748911 4294901502 0 0 0 0
1.2056084 -0.23059282 0.21773323 4294901502 0 0 0 0
1.2254366 0.40783718 0.24154158 4289045676 0 0 0 0
1.2254058 0.40552694 0.24176942 4290165981 0 0 0 0
1.2253751 0.40321666 0.24199727 4291345878 0 0 0 0
1.2253443 0.40090638 0.24222513 4291215311 0 0 0 0
1.2260941 0.39762601 0.24752423 4291149522 0 0 0 0
1.2252828 0.39628583 0.24268083 4291083989 0 0 0 0
1.2260329 0.39302447 0.24797806 4291083987 0 0 0 0
1.2266271 0.38997033 0.25225979 4291083985 0 0 0 0
1.2265966 0.38767713 0.25248596 4291083983 0 0 0 0
1.226566 0.3853839 0.25271213 4291083981 0 0 0 0
1.2265354 0.38309067 0.2529383 4291083729 0 0 0 0
1.2265049 0.38079745 0.25316447 4291083733 0 0 0 0
1.2264744 0.37850425 0.25339064 4291083476 0 0 0 0
1.2264439 0.37621105 0.25361681 4291017427 0 0 0 0
1.2264134 0.37391782 0.25384298 4290951892 0 0 0 0
1.2263829 0.37162462 0.25406915 4291673813 0 0 0 0
1.2263522 0.36933139 0.25429532 4292465365 0 0 0 0
1.2269475 0.36636066 0.25856873 4291347157 0 0 0 0
1.2269171 0.36407506 0.25879413 4290227663 0 0 0 0
1.2275127 0.36112708 0.26306543 4290294473 0 0 0 0
1.2274824 0.35884902 0.26329011 4290426053 0 0 0 0
1.2282349 0.35576198 0.26857013 4290294722 0 0 0 0
1.2282046 0.35349339 0.26879388 4290162880 0 0 0 0
1.2281744 0.35122484 0.26901761 4290031551 0 0 0 0
1.2287707 0.34833181 0.27328333 4289900485 0 0 0 0
1.2293674 0.34545398 0.27754772 4290031562 0 0 0 0
1.229964 0.34259129 0.28181046 4290162128 0 0 0 0
1.2299341 0.34034544 0.28203195 4290096597 0 0 0 0
1.2299042 0.33809963 0.28225344 4290096847 0 0 0 0
1.2305014 0.33526725 0.28651321 4290097098 0 0 0 0
1.2304716 0.333029 0.28673396 4290162888 0 0 0 0
1.231069 0.33021936 0.29099157 4290163142 0 0 0 0
1.2310393 0.32798868 0.29121158 4290162631 0 0 0 0
1.2303822 0.32631424 0.28739619 4290162121 0 0 0 0
1.2309799 0.32352737 0.29165158 4290162636 0 0 0 0
1.2309502 0.32129669 0.29187158 4290228943 0 0 0 0
1.2315483 0.31853256 0.29612461 4290294221 0 0 0 0
1.2308908 0.31683534 0.29231158 4290359499 0 0 0 0
1.2308611 0.31460464 0.29253158 4290424779 0 0 0 0
1.2308314 0.31237397 0.29275158 4290293451 0 0 0 0
1.2308017 0.31014329 0.29297158 4290228429 0 0 0 0
1.2314003 0.30741709 0.29722089 4290228430 0 0 0 0
1.2313707 0.30519402 0.29744011 4290228174 0 0 0 0
1.231341 0.30297092 0.29765937 4290359247 0 0 0 0
1.2313114 0.30074781 0.29787862 4290556620 0 0 0 0
1.2319105 0.29805949 0.30212429 4290425801 0 0 0 0
1.231881 0.29584396 0.3023428 4290360779 0 0 0 0
1.2318515 0.29362845 0.30256131 4290360781 0 0 0 0
1.231822 0.29141295 0.30277982 4290360780 0 0 0 0
1.2324215 0.28876254 0.30702162 4290360780 0 0 0 0
1.231763 0.28698191 0.30321681 4290426314 0 0 0 0
1.2317336 0.28476644 0.30343533 4290426568 0 0 0 0
1.2323334 0.28213874 0.30767491 4290425806 0 0 0 0
1.232304 0.2799308 0.30789265 4290556629 0 0 0 0
1.2322745 0.27772287 0.30811042 4290688727 0 0 0 0
1.2322452 0.27551493 0.30832818 4290557913 0 0 0 0
1.2334753 0.27254331 0.3165822 4290492115 0 0 0 0
1.234076 0.26997629 0.32081589 4290492109 0 0 0 0
1.2345194 0.26751608 0.32404378 4290492112 0 0 0 0
1.2340178 0.2656059 0.32124692 4290557651 0 0 0 0
1.2339888 0.26342073 0.32146245 4290623187 0 0 0 0
1.2344323 0.2609776 0.32468864 4290754516 0 0 0 0
1.2339305 0.25905034 0.32189348 4290885589 0 0 0 0
1.2343743 0.25661859 0.32511857 4290689238 0 0 0 0
1.2338723 0.25467995 0.32232451 4290492629 0 0 0 0
1.2338432 0.25249475 0.32254001 4290492628 0 0 0 0
1.2331834 0.25061563 0.31874481 4290557905 0 0 0 0
1.2331542 0.24842286 0.31896108 4290623439 0 0 0 0
1.233125 0.2462301 0.31917733 4290688978 0 0 0 0
1.2337269 0.24375401 0.32340208 4290623445 0 0 0 0
1.2336978 0.24156883 0.32361761 4290623444 0 0 0 0
1.2336687 0.23938365 0.32383311 4290623444 0 0 0 0
1.2336396 0.23719846 0.32404861 4290623444 0 0 0 0
1.2336105 0.23501328 0.32426414 4290623701 0 0 0 0
1.234055 0.23264405 0.32748306 4290623449 0 0 0 0
1.2340261 0.23046455 0.32769799 4290557918 0 0 0 0
1.233997 0.22828504 0.32791296 4290557914 0 0 0 0
1.233968 0.22610556 0.32812792 4290688983 0 0 0 0
1.2339389 0.22392605 0.32834285 4290885593 0 0 0 0
1.23391 0.22174653 0.32855782 4290754523 0 0 0 0
1.2345132 0.21936712 0.33277303 4290688984 0 0 0 0
1.2344842 0.2171952 0.33298722 4290754262 0 0 0 0
1.2344553 0.21502328 0.33320144 4290885334 0 0 0 0
1.2344264 0.21285136 0.33341563 4290688727 0 0 0 0
1.2343974 0.21067944 0.33362985 4290557396 0 0 0 0
1.2343686 0.20850752 0.33384407 4290491858 0 0 0 0
1.2349724 0.20618118 0.33805391 4290426577 0 0 0 0
1.2349436 0.20401683 0.33826736 4290492881 0 0 0 0
1.2349148 0.2018525 0.33848083 4290558158 0 0 0 0
1.2348859 0.19968817 0.33869427 4290558155 0 0 0 0
1.2348572 0.19752383 0.33890775 4290557902 0 0 0 0
1.2348284 0.19535947 0.33912119 4290557906 0 0 0 0
1.2347995 0.19319515 0.33933467 4290558163 0 0 0 0
1.2354043 0.19092944 0.34353864 4290427605 0 0 0 0
1.2353755 0.18877268 0.34375134 4290362070 0 0 0 0
1.2353468 0.18661593 0.34396407 4290493143 0 0 0 0
1.2353181 0.18445916 0.34417677 4290689239 0 0 0 0
1.2352893 0.18230242 0.34438947 4290557912 0 0 0 0
1.2352606 0.18014564 0.3446022 4290492628 0 0 0 0
1.2352319 0.17798889 0.3448149 4290492879 0 0 0 0
1.2352031 0.17583212 0.34502763 4290558163 0 0 0 0
1.2351744 0.17367537 0.34524032 4290492375 0 0 0 0
1.2351457 0.17151861 0.34545302 4290426580 0 0 0 0
1.2351171 0.16936184 0.34566575 4290426578 0 0 0 0
1.2344537 0.16722307 0.34189615 4290492372 0 0 0 0
1.2344248 0.16505872 0.34210962 4290492630 0 0 0 0
1.2343961 0.16289438 0.34232306 4290492628 0 0 0 0
1.2343673 0.16073003 0.34253654 4290427090 0 0 0 0
1.2349734 0.15857805 0.34672931 4290427090 0 0 0 0
1.2349447 0.1564213 0.34694201 4290427347 0 0 0 0
1.2342808 0.15423702 0.3431769 4290492117 0 0 0 0
1.234252 0.15207267 0.34339035 4290426840 0 0 0 0
1.2342231 0.14990833 0.34360382 4290426581 0 0 0 0
1.2341944 0.14774399 0.34381726 4290557650 0 0 0 0
1.2348012 0.1456375 0.34800556 4290754256 0 0 0 0
1.2341367 0.14341532 0.34424418 4290556622 0 0 0 0
1.2334721 0.14117798 0.34048444 4290361037 0 0 0 0
1.234715 0.13916722 0.34864369 4290427597 0 0 0 0
1.2346863 0.13701047 0.34885642 4290492875 0 0 0 0
1.2346575 0.13485371 0.34906912 4290361802 0 0 0 0
1.2346288 0.13269694 0.34928182 4290295752 0 0 0 0
1.2339638 0.13042928 0.34552494 4290098630 0 0 0 0
1.2345715 0.12838343 0.34970725 4289966026 0 0 0 0
1.2345427 0.12622666 0.34991995 4289571534 0 0 0 0
1.2351506 0.12420356 0.3540999 4289244366 0 0 0 0
1.2344853 0.12191314 0.35034537 4289111247 0 0 0 0
1.2344565 0.11975639 0.3505581 4288980946 0 0 0 0
1.2344278 0.11759962 0.3507708 4289178326 0 0 0 0
1.2343991 0.11544287 0.3509835 4289375188 0 0 0 0
1.2337333 0.11311455 0.34723261 4289572563 0 0 0 0
1.2343417 0.11112935 0.35140893 4289768914 0 0 0 0
1.234313 0.10897259 0.35162166 4289572305 0 0 0 0
1.2342843 0.10681583 0.35183436 4289441231 0 0 0 0
1.2348931 0.10486095 0.35600758 4289375693 0 0 0 0
1.2342268 0.10250231 0.35225978 4289310159 0 0 0 0
1.2341981 0.10034556 0.35247248 4289179090 0 0 0 0
1.2341694 0.098188795 0.35268518 4289048017 0 0 0 0
1.2341406 0.096032038 0.35289791 4289179088 0 0 0 0
1.2341119 0.093875274 0.35311061 4289309901 0 0 0 0
1.2340832 0.091718517 0.35332334 4289244363 0 0 0 0
1.2340546 0.08956176 0.35353604 4289244113 0 0 0 0
1.2340258 0.087404996 0.35374874 4289308119 0 0 0 0
1.2339971 0.085248239 0.35396147 4289375956 0 0 0 0
1.2339684 0.083091483 0.35417417 4289310418 0 0 0 0
1.2339396 0.080934718 0.3543869 4289309909 0 0 0 0
1.2339109 0.078777961 0.3545996 4289376217 0 0 0 0
1.234521 0.076921634 0.3587631 4289441748 0 0 0 0
1.2344924 0.074772455 0.35897505 4289507279 0 0 0 0
1.2344638 0.072623275 0.35918701 4289638095 0 0 0 0
1.2337961 0.070150927 0.35545042 4289506767 0 0 0 0
1.2331281 0.067663401 0.35171524 4289375698 0 0 0 0
1.2330992 0.065499067 0.35192868 4289310166 0 0 0 0
1.2330705 0.063334726 0.35214216 4289244625 0 0 0 0
1.2324021 0.060816891 0.34841007 4289441741 0 0 0 0
1.2330128 0.059006043 0.35256907 4289638090 0 0 0 0
1.2329839 0.056841705 0.35278252 4289768392 0 0 0 0
1.2329552 0.054677363 0.35299599 4289900489 0 0 0 0
1.2329264 0.052513022 0.35320944 4289900747 0 0 0 0
1.2328975 0.050348684 0.35342291 4289900745 0 0 0 0
1.2322285 0.047785364 0.3496953 4290032071 0 0 0 0
1.2321997 0.045613445 0.34990951 4290163150 0 0 0 0
1.2321707 0.043441523 0.3501237 4290294486 0 0 0 0
1.2321419 0.041269604 0.35033792 4290492375 0 0 0 0
1.2321129 0.039097682 0.35055211 4290624984 0 0 0 0
1.2314433 0.036488865 0.34682888 4290755800 0 0 0 0
1.2320551 0.03475384 0.35098052 4290952151 0 0 0 0
1.2313852 0.032129861 0.34725878 4291149270 0 0 0 0
1.2313563 0.029950358 0.34747374 4290953174 0 0 0 0
1.2319683 0.028238075 0.35162315 4290822103 0 0 0 0
1.2312982 0.025591355 0.34790364 4290888153 0 0 0 0
1.2312692 0.023411853 0.3481186 4290953433 0 0 0 0
1.2312402 0.02123235 0.34833357 4290953177 0 0 0 0
1.2312112 0.01905285 0.3485485 4290952919 0 0 0 0
1.2311821 0.016873347 0.34876347 4291017941 0 0 0 0
1.2311531 0.014693842 0.34897843 4291083479 0 0 0 0
1.2306428 0.012124149 0.3462466 4290952409 0 0 0 0
1.2310951 0.010334843 0.34940833 4290887125 0 0 0 0
1.2310661 0.0081553385 0.34962326 4290887378 0 0 0 0
1.231037 0.0059758346 0.34983823 4290952916 0 0 0 0
1.2305264 0.0033833978 0.34710866 4290953173 0 0 0 0
1.2304974 0.0011982116 0.34732416 4290953172 0 0 0 0
1.2304682 -0.00098697818 0.34753969 4290887635 0 0 0 0
