# .PCD v0.7 - Point Cloud Data file format
VERSION 0.7
FIELDS x y z rgb normal_x normal_y normal_z curvature
SIZE 4 4 4 4 4 4 4 4
TYPE F F F U F F F F
COUNT 1 1 1 1 1 1 1 1
WIDTH 192
HEIGHT 1
VIEWPOINT 0 0 0 1 0 0 0
POINTS 192
DATA ascii
1.1461399 0.52736044 0.25599793 4278190080 0 0 0 0
1.1271962 0.48110321 0.25718832 4278190080 0 0 0 0
1.1082526 0.43484643 0.25837871 4278190080 0 0 0 0
1.0893091 0.38858932 0.25956908 4278190080 0 0 0 0
1.0703654 0.34233218 0.26075947 4278190080 0 0 0 0
1.0514215 0.29607424 0.2619499 4278190080 0 0 0 0
1.0324777 0.24981678 0.26314029 4278190080 0 0 0 0
1.0135343 0.20356008 0.26433066 4278190080 0 0 0 0
0.99459106 0.15730375 0.26552105 4278190080 0 0 0 0
0.97564727 0.11104617 0.26671144 4278190080 0 0 0 0
0.95670348 0.064788669 0.26790184 4278190080 0 0 0 0
0.93776017 0.018532157 0.2690922 4278190080 0 0 0 0
0.91881633 -0.027725339 0.2702826 4278190080 0 0 0 0
0.89987302 -0.073981881 0.27147299 4278190080 0 0 0 0
0.88092947 -0.12023884 0.27266338 4278190080 0 0 0 0
0.87107849 -0.14429325 0.27328238 4278190080 0 0 0 0
1.1919951 0.50875556 0.2627643 4278190080 0 0 0 0
1.1730514 0.46249843 0.2639547 4278190080 0 0 0 0
1.1541079 0.41624147 0.26514506 4278190080 0 0 0 0
1.1351643 0.36998418 0.26633546 4278190080 0 0 0 0
1.1162207 0.32372725 0.26752585 4278190080 0 0 0 0
1.0972767 0.27746913 0.26871628 4278190080 0 0 0 0
1.0783335 0.23121262 0.26990664 4278190080 0 0 0 0
1.0593898 0.18495563 0.271097 4278190080 0 0 0 0
1.0404463 0.1386984 0.2722874 4278190080 0 0 0 0
1.0215023 0.092440397 0.27347782 4278190080 0 0 0 0
1.0025588 0.046183705 0.27466819 4278190080 0 0 0 0
0.98361552 -7.2658062e-05 0.27585858 4278190080 0 0 0 0
0.96467173 -0.046330273 0.27704895 4278190080 0 0 0 0
0.94572806 -0.092587471 0.27823937 4278190080 0 0 0 0
0.92678487 -0.13884354 0.27942973 4278190080 0 0 0 0
0.91693383 -0.16289812 0.28004876 4278190080 0 0 0 0
1.2387239 0.48977128 0.2686922 4278190080 0 0 0 0
1.2197802 0.44351411 0.26988262 4278190080 0 0 0 0
1.2008368 0.39725691 0.27107298 4278190080 0 0 0 0
1.181893 0.35099959 0.27226338 4278190080 0 0 0 0
1.1629497 0.30474326 0.27345377 4278190080 0 0 0 0
1.144006 0.25848618 0.27464414 4278190080 0 0 0 0
1.1250625 0.2122294 0.2758345 4278190080 0 0 0 0
1.1061187 0.16597143 0.27702495 4278190080 0 0 0 0
1.0871755 0.11971518 0.27821529 4278190080 0 0 0 0
1.0682313 0.07345736 0.27940571 4278190080 0 0 0 0
1.0492874 0.027199566 0.28059614 4278190080 0 0 0 0
1.0303445 -0.019057155 0.2817865 4278190080 0 0 0 0
1.0114003 -0.06531471 0.28297693 4278190080 0 0 0 0
0.99245638 -0.11157298 0.28416732 4278190080 0 0 0 0
0.97351348 -0.15782809 0.28535771 4278190080 0 0 0 0
0.96366268 -0.18188238 0.28597668 4278190080 0 0 0 0
1.2854002 0.47078732 0.27379245 4278190080 0 0 0 0
1.2664566 0.42453009 0.27498284 4278190080 0 0 0 0
1.2475129 0.37827307 0.27617323 4278190080 0 0 0 0
1.2285693 0.33201599 0.27736363 4278190080 0 0 0 0
1.2096256 0.28575855 0.27855402 4278190080 0 0 0 0
1.1906819 0.2395013 0.27974442 4278190080 0 0 0 0
1.1717384 0.1932444 0.28093478 4278190080 0 0 0 0
1.1527951 0.14698765 0.28212517 4278190080 0 0 0 0
1.1338513 0.1007303 0.28331557 4278190080 0 0 0 0
1.1149077 0.054472923 0.28450596 4278190080 0 0 0 0
1.0959635 0.0082148314 0.28569639 4278190080 0 0 0 0
1.0770203 -0.038041711 0.28688675 4278190080 0 0 0 0
1.0580769 -0.084298611 0.28807712 4278190080 0 0 0 0
1.0391334 -0.13055497 0.28926751 4278190080 0 0 0 0
1.0201898 -0.17681223 0.2904579 4278190080 0 0 0 0
1.0103388 -0.20086628 0.29107693 4278190080 0 0 0 0
1.3320017 0.45180377 0.27772009 4278190080 0 0 0 0
1.3130581 0.40554664 0.27891049 4278190080 0 0 0 0
1.2941138 0.35928965 0.28010094 4278190080 0 0 0 0
1.2751703 0.31303278 0.28129134 4278190080 0 0 0 0
1.2562273 0.2667757 0.28248167 4278190080 0 0 0 0
1.2372836 0.22051784 0.28367206 4278190080 0 0 0 0
1.2183396 0.17426071 0.28486246 4278190080 0 0 0 0
1.1993961 0.12800351 0.28605282 4278190080 0 0 0 0
1.1804522 0.081746548 0.28724328 4278190080 0 0 0 0
1.1615093 0.035489619 0.28843361 4278190080 0 0 0 0
1.1425654 -0.010767996 0.28962401 4278190080 0 0 0 0
1.1236212 -0.057025552 0.29081446 4278190080 0 0 0 0
1.1046783 -0.10328144 0.29200479 4278190080 0 0 0 0
1.0857344 -0.14953929 0.29319522 4278190080 0 0 0 0
1.0667906 -0.19579726 0.29438561 4278190080 0 0 0 0
1.0569402 -0.21984982 0.29500461 4278190080 0 0 0 0
1.3701351 0.43623775 0.27969152 4278190080 0 0 0 0
1.3511914 0.38998061 0.28088191 4278190080 0 0 0 0
1.3322476 0.34372357 0.28207231 4278190080 0 0 0 0
1.3133041 0.29746655 0.28326267 4278190080 0 0 0 0
1.2943604 0.25120938 0.28445309 4278190080 0 0 0 0
1.2754167 0.20495203 0.28564349 4278190080 0 0 0 0
1.2564732 0.15869489 0.28683385 4278190080 0 0 0 0
1.2375294 0.11243737 0.28802428 4278190080 0 0 0 0
1.2185861 0.066180795 0.28921464 4278190080 0 0 0 0
1.1996424 0.019923568 0.29040504 4278190080 0 0 0 0
1.1806986 -0.026333332 0.29159543 4278190080 0 0 0 0
1.161755 -0.072591186 0.29278582 4278190080 0 0 0 0
1.1428114 -0.11884803 0.29397619 4278190080 0 0 0 0
1.1238679 -0.16510504 0.29516658 4278190080 0 0 0 0
1.1049244 -0.21136147 0.29635695 4278190080 0 0 0 0
1.0950737 -0.23541594 0.29697597 4278190080 0 0 0 0
1.5195442 0.37474018 0.26763546 4278190080 0 0 0 0
1.5006006 0.32848299 0.26882586 4278190080 0 0 0 0
1.4816573 0.28222573 0.27001619 4278190080 0 0 0 0
1.462714 0.23596874 0.27120659 4278190080 0 0 0 0
1.4437702 0.18971166 0.27239698 4278190080 0 0 0 0
1.4248258 0.14345461 0.27358744 4278190080 0 0 0 0
1.4058816 0.097198069 0.27477789 4278190080 0 0 0 0
1.3869392 0.050939918 0.2759681 4278190080 0 0 0 0
1.3679949 0.0046832561 0.27715862 4278190080 0 0 0 0
1.3490521 -0.041573763 0.27834895 4278190080 0 0 0 0
1.3301086 -0.08783102 0.27953935 4278190080 0 0 0 0
1.3111646 -0.1340881 0.28072974 4278190080 0 0 0 0
1.2922214 -0.18034559 0.28192011 4278190080 0 0 0 0
1.2732766 -0.22660327 0.28311062 4278190080 0 0 0 0
1.2543334 -0.27285951 0.28430092 4278190080 0 0 0 0
1.2444824 -0.29691333 0.28491995 4278190080 0 0 0 0
1.5611199 0.35728317 0.25090379 4278190080 0 0 0 0
1.5421767 0.31102586 0.25209409 4278190080 0 0 0 0
1.5232333 0.26476866 0.25328457 4278190080 0 0 0 0
1.5042888 0.21851203 0.25447503 4278190080 0 0 0 0
1.4853446 0.17225501 0.25566536 4278190080 0 0 0 0
1.4664016 0.12599742 0.25685579 4278190080 0 0 0 0
1.4474586 0.079740286 0.25804609 4278190080 0 0 0 0
1.4285139 0.033483505 0.25923666 4278190080 0 0 0 0
1.4095712 -0.012773931 0.26042694 4278190080 0 0 0 0
1.3906283 -0.059031308 0.26161718 4278190080 0 0 0 0
1.3716835 -0.10528868 0.26280761 4278190080 0 0 0 0
1.3527409 -0.15154511 0.26399797 4278190080 0 0 0 0
1.3337964 -0.1978026 0.26518852 4278190080 0 0 0 0
1.3148532 -0.24406028 0.26637882 4278190080 0 0 0 0
1.295909 -0.29031652 0.26756927 4278190080 0 0 0 0
1.2860589 -0.31437057 0.26818815 4278190080 0 0 0 0
1.3933396 0.42674661 0.28014964 4278190080 0 0 0 0
1.3743961 0.38048947 0.28134 4278190080 0 0 0 0
1.3554524 0.33423233 0.2825304 4278190080 0 0 0 0
1.3365089 0.28797531 0.28372079 4278190080 0 0 0 0
1.3175652 0.24171793 0.28491119 4278190080 0 0 0 0
1.2986217 0.19546098 0.28610158 4278190080 0 0 0 0
1.2796779 0.14920363 0.28729197 4278190080 0 0 0 0
1.2607342 0.1029464 0.28848237 4278190080 0 0 0 0
1.2417909 0.05668956 0.28967273 4278190080 0 0 0 0
1.2228471 0.010432422 0.29086316 4278190080 0 0 0 0
1.2039034 -0.035824955 0.29205355 4278190080 0 0 0 0
1.1849599 -0.082081974 0.29324391 4278190080 0 0 0 0
1.1660163 -0.12833917 0.29443428 4278190080 0 0 0 0
1.1470728 -0.17459571 0.29562467 4278190080 0 0 0 0
1.1281291 -0.22085297 0.29681507 4278190080 0 0 0 0
1.1182784 -0.24490696 0.29743409 4278190080 0 0 0 0
1.4248339 0.41383895 0.27976665 4278190080 0 0 0 0
1.4058902 0.36758202 0.2809571 4278190080 0 0 0 0
1.3869467 0.32132465 0.28214747 4278190080 0 0 0 0
1.3680029 0.27506751 0.28333786 4278190080 0 0 0 0
1.3490595 0.22881007 0.28452826 4278190080 0 0 0 0
1.3301151 0.18255308 0.28571862 4278190080 0 0 0 0
1.3111719 0.1362963 0.28690898 4278190080 0 0 0 0
1.2922285 0.090038657 0.28809932 4278190080 0 0 0 0
1.2732852 0.043781757 0.28928971 4278190080 0 0 0 0
1.2543414 -0.0024758577 0.29048014 4278190080 0 0 0 0
1.2353976 -0.048733234 0.29167053 4278190080 0 0 0 0
1.2164544 -0.094989181 0.2928609 4278190080 0 0 0 0
1.1975102 -0.14124703 0.29405135 4278190080 0 0 0 0
1.1785666 -0.18750453 0.29524174 4278190080 0 0 0 0
1.1596235 -0.23376042 0.29643208 4278190080 0 0 0 0
1.1497726 -0.25781471 0.29705113 4278190080 0 0 0 0
1.4710093 0.39485776 0.27700421 4278190080 0 0 0 0
1.452065 0.34860095 0.27819452 4278190080 0 0 0 0
1.4331226 0.30234331 0.27938494 4278190080 0 0 0 0
1.4141778 0.25608668 0.28057531 4278190080 0 0 0 0
1.3952348 0.20982909 0.2817657 4278190080 0 0 0 0
1.3762898 0.16357228 0.28295609 4278190080 0 0 0 0
1.3573474 0.11731508 0.28414652 4278190080 0 0 0 0
1.3384045 0.071057677 0.28533685 4278190080 0 0 0 0
1.3194602 0.024801493 0.28652722 4278190080 0 0 0 0
1.3005155 -0.021455288 0.2877177 4278190080 0 0 0 0
1.2815728 -0.06771487 0.28890806 4278190080 0 0 0 0
1.2626297 -0.11396903 0.29009843 4278190080 0 0 0 0
1.2436851 -0.16022807 0.29128879 4278190080 0 0 0 0
1.2247418 -0.20648551 0.29247925 4278190080 0 0 0 0
1.2057985 -0.25274199 0.29366967 4278190080 0 0 0 0
1.1959476 -0.27679574 0.29428864 4278190080 0 0 0 0
1.4967387 0.3842293 0.27344763 4278190080 0 0 0 0
1.477795 0.33797216 0.27463803 4278190080 0 0 0 0
1.4588515 0.29171503 0.27582842 4278190080 0 0 0 0
1.4399078 0.24545795 0.27701879 4278190080 0 0 0 0
1.4209642 0.19920075 0.27820918 4278190080 0 0 0 0
1.4020207 0.15294361 0.27939957 4278190080 0 0 0 0
1.383077 0.1066865 0.28058997 4278190080 0 0 0 0
1.3641334 0.060429335 0.28178036 4278190080 0 0 0 0
1.3451897 0.014172196 0.28297076 4278190080 0 0 0 0
1.3262461 -0.032085001 0.28416115 4278190080 0 0 0 0
1.3073025 -0.078341961 0.28535154 4278190080 0 0 0 0
1.2883589 -0.1245991 0.28654191 4278190080 0 0 0 0
1.2694154 -0.1708563 0.2877323 4278190080 0 0 0 0
1.2504717 -0.21711349 0.2889227 4278190080 0 0 0 0
1.2315282 -0.26337069 0.29011309 4278190080 0 0 0 0
1.2216774 -0.28742439 0.29073212 4278190080 0 0 0 0
